# .PCD v0.7 - Point Cloud Data file format
VERSION 0.7
FIELDS x y z rgb
SIZE 4 4 4 4
TYPE F F F F
COUNT 1 1 1 1
WIDTH 1150
HEIGHT 1
VIEWPOINT 0 0 0 1 0 0 0
POINTS 1150
DATA ascii
-594.39655 238.36208 -1750 1.298949e-038
-597.41382 238.36208 -1750 1.298949e-038
-600.43103 238.36208 -1750 1.298949e-038
-603.4483 238.36208 -1750 1.298949e-038
-606.46552 238.36208 -1750 1.2805099e-038
-612.17242 235.91034 -1732 1.2805099e-038
-615.15863 235.91034 -1732 1.2805099e-038
-618.14484 235.91034 -1732 1.2805096e-038
-621.13104 235.91034 -1732 1.2713618e-038
-624.11725 235.91034 -1732 1.2713618e-038
-627.10345 235.91034 -1732 1.2713617e-038
-632.77588 233.59483 -1715 1.2713617e-038
-635.73279 233.59483 -1715 1.2713617e-038
-652.85175 231.27931 -1698 1.3082399e-038
-652.68964 230.18965 -1690 1.2621421e-038
-655.60345 230.18965 -1690 1.2621421e-038
-658.51721 230.18965 -1690 1.2621421e-038
-661.43103 230.18965 -1690 1.2621421e-038
-664.34485 230.18965 -1690 1.2621421e-038
-667.25861 230.18965 -1690 1.2621421e-038
-674.61206 226.78448 -1665 1.2621421e-038
-677.48279 226.78448 -1665 1.2621421e-038
-680.35345 226.78448 -1665 1.2713617e-038
-683.22412 226.78448 -1665 1.2713977e-038
-686.09485 226.78448 -1665 1.2622141e-038
-685.65515 225.69482 -1657 1.2621427e-038
-688.51208 225.69482 -1657 1.234592e-038
-693.04138 222.56207 -1634 1.234592e-038
-695.85864 222.56207 -1634 1.234592e-038
-698.67584 222.56207 -1634 1.2253724e-038
-701.4931 222.56207 -1634 1.2253724e-038
-704.31036 222.56207 -1634 1.2253724e-038
-707.12756 222.56207 -1634 1.2253724e-038
-709.94482 222.56207 -1634 1.2253724e-038
-712.76208 222.56207 -1634 1.2253724e-038
-715.57928 222.56207 -1634 1.2253724e-038
-714.87933 221.47241 -1626 1.2253722e-038
-717.68274 221.47241 -1626 1.1977851e-038
-720.48621 221.47241 -1626 1.1977851e-038
-729.64136 218.33966 -1603 1.2254083e-038
-732.40515 218.33966 -1603 1.2253724e-038
-735.16895 218.33966 -1603 1.2069335e-038
-737.93274 218.33966 -1603 1.2068976e-038
-740.69653 218.33966 -1603 1.2253008e-038
-743.46033 218.33966 -1603 1.225301e-038
-746.22412 218.33966 -1603 1.1976426e-038
-748.98792 218.33966 -1603 1.1976426e-038
-751.75171 218.33966 -1603 1.1976784e-038
-756.14484 216.43275 -1589 1.2437401e-038
-770.71722 214.38965 -1574 1.2161173e-038
-773.43103 214.38965 -1574 1.225301e-038
-778.85864 214.38965 -1574 1.1608719e-038
-787.21033 211.52931 -1553 1.1793831e-038
-789.88794 211.52931 -1553 1.1793831e-038
-792.56549 211.52931 -1553 1.1701635e-038
-795.2431 211.52931 -1553 1.1978222e-038
-797.92072 211.52931 -1553 1.1978222e-038
-800.59827 211.52931 -1553 1.1978222e-038
-803.27588 211.52931 -1553 1.1978222e-038
-805.95343 211.52931 -1553 1.1978222e-038
68.674141 315.09311 -2343 1.0592387e-038
64.634483 315.09311 -2343 1.0592394e-038
60.594826 315.09311 -2343 1.1054095e-038
56.555172 315.09311 -2343 1.1976052e-038
52.515518 315.09311 -2343 1.2344834e-038
48.475861 315.09311 -2343 1.243703e-038
44.436207 315.09311 -2343 1.2160443e-038
40.396553 315.09311 -2343 1.2160443e-038
36.10862 312.94138 -2327 1.2160443e-038
32.09655 312.94138 -2327 1.2252638e-038
28.084482 312.94138 -2327 1.243703e-038
24.072414 312.94138 -2327 1.243703e-038
20.060345 312.94138 -2327 1.243703e-038
-7.8655171 306.75516 -2281 1.2619269e-038
-11.798276 306.75516 -2281 1.2711463e-038
-19.663794 306.75516 -2281 1.2804016e-038
-23.596552 306.75516 -2281 1.2896569e-038
-27.52931 306.75516 -2281 1.2896569e-038
-57.853447 300.83792 -2237 1.2712887e-038
-61.710346 300.83792 -2237 1.2713248e-038
-65.567238 300.83792 -2237 1.2805085e-038
-77.137932 300.83792 -2237 1.2989476e-038
-84.320686 298.95517 -2223 1.3173868e-038
-88.15345 298.95517 -2223 1.3081672e-038
-91.986206 298.95517 -2223 1.2989476e-038
-95.172417 296.93793 -2208 1.2989476e-038
-98.979309 296.93793 -2208 1.3081672e-038
-102.78621 296.93793 -2208 1.3173868e-038
-106.5931 296.93793 -2208 1.3173868e-038
-110.4 296.93793 -2208 1.3266063e-038
-154.96552 287.79309 -2140 1.3357547e-038
-158.65517 287.79309 -2140 1.3357547e-038
-162.34483 287.79309 -2140 1.3357547e-038
-166.03448 287.79309 -2140 1.3357547e-038
-169.72414 287.79309 -2140 1.3357547e-038
-173.41379 287.79309 -2140 1.3449743e-038
-177.10345 287.79309 -2140 1.3726329e-038
-180.79311 287.79309 -2140 1.3726329e-038
-199.23276 282.54828 -2101 1.3726329e-038
-202.85518 282.54828 -2101 1.3634134e-038
-206.47758 282.54828 -2101 1.3541938e-038
-210.10001 282.54828 -2101 1.3357547e-038
-213.72241 282.54828 -2101 1.3265351e-038
-241.86897 277.43793 -2063 1.3357547e-038
-245.42586 277.43793 -2063 1.3449743e-038
-248.98276 277.43793 -2063 1.3634134e-038
-252.53966 277.43793 -2063 1.3634134e-038
-256.09656 277.43793 -2063 1.3449743e-038
-272.59656 272.59656 -2027 1.3449743e-038
-276.09137 272.59656 -2027 1.344974e-038
-279.58621 272.59656 -2027 1.3266063e-038
-283.08102 272.59656 -2027 1.3266063e-038
-286.57587 272.59656 -2027 1.3450454e-038
-288.35345 270.98276 -2015 1.354265e-038
-291.82758 270.98276 -2015 1.3634846e-038
-295.30173 270.98276 -2015 1.3634846e-038
-298.77585 270.98276 -2015 1.354265e-038
-302.25 270.98276 -2015 1.3450454e-038
-305.72415 270.98276 -2015 1.3358259e-038
-309.19827 270.98276 -2015 1.3266063e-038
-312.67242 270.98276 -2015 1.3266063e-038
-316.14655 270.98276 -2015 1.3358259e-038
-339.48276 264.79654 -1969 1.3634134e-038
-342.87759 264.79654 -1969 1.3634134e-038
-346.2724 264.79654 -1969 1.3634134e-038
-349.66724 264.79654 -1969 1.3634134e-038
-353.06207 264.79654 -1969 1.3634134e-038
-356.45691 264.79654 -1969 1.3541938e-038
-359.85172 264.79654 -1969 1.3449743e-038
-363.24655 264.79654 -1969 1.3449743e-038
-366.64139 264.79654 -1969 1.3449743e-038
-370.03619 264.79654 -1969 1.3449743e-038
-398.27585 258.8793 -1925 1.3541938e-038
-401.59482 258.8793 -1925 1.3541938e-038
-404.91379 258.8793 -1925 1.3634134e-038
-408.23276 258.8793 -1925 1.3634134e-038
-411.55173 258.8793 -1925 1.3634134e-038
-412.71552 257.53448 -1915 1.3634134e-038
-416.01724 257.53448 -1915 1.3634493e-038
-419.31897 257.53448 -1915 1.3634493e-038
-422.6207 257.53448 -1915 1.3267144e-038
-425.92242 257.53448 -1915 1.3175307e-038
-429.22415 257.53448 -1915 1.3175307e-038
-437.57932 254.71034 -1894 1.3175307e-038
-448.02414 253.23103 -1883 1.3175307e-038
-451.27069 253.23103 -1883 1.3175307e-038
-454.51724 253.23103 -1883 1.3175307e-038
-457.76379 253.23103 -1883 1.3175307e-038
-461.01035 253.23103 -1883 1.3083111e-038
-468.25 251.8862 -1873 1.3174595e-038
-468.96207 250.54138 -1863 1.3174595e-038
-472.17413 250.54138 -1863 1.3174595e-038
-475.3862 250.54138 -1863 1.3174595e-038
-478.59827 250.54138 -1863 1.3174595e-038
-481.81033 250.54138 -1863 1.3174595e-038
-485.0224 250.54138 -1863 1.3174595e-038
-488.2345 250.54138 -1863 1.3174595e-038
-502.49484 246.5069 -1833 1.3082399e-038
-505.65518 246.5069 -1833 1.326679e-038
-508.81552 246.5069 -1833 1.326679e-038
-511.97586 246.5069 -1833 1.326679e-038
-515.13623 246.5069 -1833 1.326679e-038
-518.29657 246.5069 -1833 1.326679e-038
-521.45691 246.5069 -1833 1.326679e-038
-524.61725 246.5069 -1833 1.326679e-038
-527.77759 246.5069 -1833 1.326679e-038
-531.86896 242.6069 -1804 1.2898008e-038
-534.97931 242.6069 -1804 1.2805812e-038
-538.08966 242.6069 -1804 1.2713617e-038
-541.20001 242.6069 -1804 1.2805454e-038
-544.31036 242.6069 -1804 1.2805455e-038
-547.42072 242.6069 -1804 1.2989133e-038
-550.53101 242.6069 -1804 1.3173524e-038
-553.64136 242.6069 -1804 1.3265718e-038
-566.8017 238.97586 -1777 1.2990201e-038
-569.86554 238.97586 -1777 1.2990558e-038
-570.02759 237.76552 -1768 1.2990558e-038
-573.07587 237.76552 -1768 1.2990915e-038
-576.12415 237.76552 -1768 1.2990915e-038
-579.17242 237.76552 -1768 1.2990915e-038
-582.2207 237.76552 -1768 1.2990915e-038
-594.39655 235.34483 -1750 1.298949e-038
-597.41382 235.34483 -1750 1.298949e-038
-600.43103 235.34483 -1750 1.298949e-038
-603.4483 235.34483 -1750 1.298949e-038
-606.46552 235.34483 -1750 1.2897295e-038
-612.17242 232.92413 -1732 1.2897295e-038
-615.15863 232.92413 -1732 1.2897293e-038
-618.14484 232.92413 -1732 1.2897292e-038
-621.13104 232.92413 -1732 1.2805455e-038
-624.11725 232.92413 -1732 1.2713618e-038
-627.10345 232.92413 -1732 1.2713617e-038
-630.08966 232.92413 -1732 1.2713617e-038
-644.06897 228.35173 -1698 1.2898008e-038
-652.85175 228.35173 -1698 1.2990204e-038
-652.68964 227.27586 -1690 1.2621421e-038
-655.60345 227.27586 -1690 1.2621421e-038
-658.51721 227.27586 -1690 1.2621421e-038
-661.43103 227.27586 -1690 1.2621421e-038
-664.34485 227.27586 -1690 1.2621421e-038
-667.25861 227.27586 -1690 1.2621421e-038
-674.61206 223.91379 -1665 1.2621421e-038
-677.48279 223.91379 -1665 1.2621421e-038
-680.35345 223.91379 -1665 1.2713617e-038
-683.22412 223.91379 -1665 1.2713977e-038
-686.09485 223.91379 -1665 1.2622141e-038
-685.65515 222.83794 -1657 1.2621427e-038
-688.51208 222.83794 -1657 1.234592e-038
-698.67584 219.74483 -1634 1.2253724e-038
-701.4931 219.74483 -1634 1.2253724e-038
-704.31036 219.74483 -1634 1.2253724e-038
-707.12756 219.74483 -1634 1.2253724e-038
-709.94482 219.74483 -1634 1.2253724e-038
-712.76208 219.74483 -1634 1.2253724e-038
-712.07587 218.66896 -1626 1.2253724e-038
-714.87933 218.66896 -1626 1.2253722e-038
-717.68274 218.66896 -1626 1.1977849e-038
-720.48621 218.66896 -1626 1.1977849e-038
-723.28967 218.66896 -1626 1.2162239e-038
-726.09308 218.66896 -1626 1.2254435e-038
-729.64136 215.57587 -1603 1.234592e-038
-732.40515 215.57587 -1603 1.234592e-038
-735.16895 215.57587 -1603 1.2253366e-038
-737.93274 215.57587 -1603 1.2253008e-038
-740.69653 215.57587 -1603 1.2253369e-038
-743.46033 215.57587 -1603 1.2345207e-038
-746.22412 215.57587 -1603 1.225301e-038
-748.98792 215.57587 -1603 1.2160816e-038
-751.75171 215.57587 -1603 1.225301e-038
-756.14484 213.6931 -1589 1.2529597e-038
-761.62415 213.6931 -1589 1.2345205e-038
-764.36377 213.6931 -1589 1.225301e-038
-787.21033 208.85173 -1553 1.1793831e-038
-789.88794 208.85173 -1553 1.1793831e-038
-792.56549 208.85173 -1553 1.1701635e-038
-795.2431 208.85173 -1553 1.1978222e-038
-797.92072 208.85173 -1553 1.1978222e-038
-796.98969 207.91034 -1546 1.1978222e-038
-799.65515 207.91034 -1546 1.1978222e-038
-802.32068 207.91034 -1546 1.1978222e-038
68.674141 311.05344 -2343 1.077642e-038
64.634483 311.05344 -2343 1.0777143e-038
60.594826 311.05344 -2343 1.1330682e-038
56.555172 311.05344 -2343 1.2344834e-038
52.515518 311.05344 -2343 1.243703e-038
48.475861 311.05344 -2343 1.243703e-038
44.436207 311.05344 -2343 1.243703e-038
40.396553 311.05344 -2343 1.2160443e-038
36.10862 308.92932 -2327 1.2160443e-038
32.09655 308.92932 -2327 1.243703e-038
28.084482 308.92932 -2327 1.2621421e-038
24.072414 308.92932 -2327 1.2621421e-038
20.060345 308.92932 -2327 1.2621421e-038
-7.8655171 302.82242 -2281 1.2619269e-038
-11.798276 302.82242 -2281 1.2711463e-038
-19.663794 302.82242 -2281 1.2804016e-038
-23.596552 302.82242 -2281 1.2896569e-038
-27.52931 302.82242 -2281 1.2896569e-038
-61.710346 296.98105 -2237 1.2805084e-038
-65.567238 296.98105 -2237 1.2805085e-038
-77.137932 296.98105 -2237 1.3081672e-038
-84.320686 295.12241 -2223 1.3266063e-038
-88.15345 295.12241 -2223 1.3266063e-038
-95.172417 293.13104 -2208 1.3081672e-038
-98.979309 293.13104 -2208 1.3173868e-038
-102.78621 293.13104 -2208 1.3173868e-038
-106.5931 293.13104 -2208 1.3266063e-038
-110.4 293.13104 -2208 1.3358259e-038
-154.96552 284.10345 -2140 1.3449743e-038
-158.65517 284.10345 -2140 1.3449743e-038
-162.34483 284.10345 -2140 1.3449743e-038
-166.03448 284.10345 -2140 1.3449743e-038
-169.72414 284.10345 -2140 1.3449743e-038
-173.41379 284.10345 -2140 1.3449743e-038
-177.10345 284.10345 -2140 1.3726329e-038
-180.79311 284.10345 -2140 1.3726329e-038
-184.48276 284.10345 -2140 1.3541938e-038
-199.23276 278.92587 -2101 1.3726329e-038
-202.85518 278.92587 -2101 1.3726329e-038
-206.47758 278.92587 -2101 1.3634134e-038
-210.10001 278.92587 -2101 1.3449743e-038
-213.72241 278.92587 -2101 1.3265351e-038
-234.75517 273.88104 -2063 1.3357547e-038
-241.86897 273.88104 -2063 1.3265351e-038
-245.42586 273.88104 -2063 1.3449743e-038
-248.98276 273.88104 -2063 1.3541938e-038
-251.07069 272.28793 -2051 1.3541938e-038
-276.09137 269.10172 -2027 1.344974e-038
-279.58621 269.10172 -2027 1.3266063e-038
-283.08102 269.10172 -2027 1.3266063e-038
-286.57587 269.10172 -2027 1.3450454e-038
-288.35345 267.50861 -2015 1.354265e-038
-291.82758 267.50861 -2015 1.3634846e-038
-295.30173 267.50861 -2015 1.3634846e-038
-298.77585 267.50861 -2015 1.354265e-038
-302.25 267.50861 -2015 1.3450454e-038
-305.72415 267.50861 -2015 1.3450454e-038
-309.19827 267.50861 -2015 1.3358259e-038
-312.67242 267.50861 -2015 1.3450454e-038
-314.26379 265.91553 -2003 1.3450454e-038
-339.48276 261.40173 -1969 1.3634134e-038
-342.87759 261.40173 -1969 1.3634134e-038
-346.2724 261.40173 -1969 1.3634134e-038
-349.66724 261.40173 -1969 1.3634134e-038
-353.06207 261.40173 -1969 1.3541938e-038
-356.45691 261.40173 -1969 1.3449743e-038
-359.85172 261.40173 -1969 1.3449743e-038
-363.24655 261.40173 -1969 1.3449743e-038
-366.64139 261.40173 -1969 1.3449743e-038
-398.27585 255.56035 -1925 1.3634134e-038
-401.59482 255.56035 -1925 1.3634134e-038
-404.91379 255.56035 -1925 1.3634134e-038
-408.23276 255.56035 -1925 1.3634134e-038
-411.55173 255.56035 -1925 1.3634134e-038
-412.71552 254.23276 -1915 1.3634134e-038
-416.01724 254.23276 -1915 1.3634134e-038
-419.31897 254.23276 -1915 1.3542297e-038
-422.6207 254.23276 -1915 1.3267144e-038
-425.92242 254.23276 -1915 1.3175307e-038
-429.22415 254.23276 -1915 1.3175307e-038
-444.77759 249.98448 -1883 1.3175307e-038
-448.02414 249.98448 -1883 1.3175307e-038
-451.27069 249.98448 -1883 1.3175307e-038
-454.51724 249.98448 -1883 1.3175307e-038
-457.76379 249.98448 -1883 1.3175307e-038
-461.01035 249.98448 -1883 1.3175307e-038
-465.02069 248.65689 -1873 1.3174592e-038
-468.25 248.65689 -1873 1.3174595e-038
-471.47931 248.65689 -1873 1.3174595e-038
-474.70862 248.65689 -1873 1.3174595e-038
-477.93793 248.65689 -1873 1.3174595e-038
-478.59827 247.32932 -1863 1.3174595e-038
-488.2345 247.32932 -1863 1.3174595e-038
-499.33447 243.34656 -1833 1.2990204e-038
-502.49484 243.34656 -1833 1.326679e-038
-505.65518 243.34656 -1833 1.326679e-038
-508.81552 243.34656 -1833 1.3358986e-038
-511.97586 243.34656 -1833 1.3358986e-038
-515.13623 243.34656 -1833 1.3358986e-038
-518.29657 243.34656 -1833 1.3358986e-038
-521.45691 243.34656 -1833 1.3358986e-038
-524.61725 243.34656 -1833 1.3358986e-038
-531.86896 239.49655 -1804 1.2990204e-038
-534.97931 239.49655 -1804 1.2898008e-038
-538.08966 239.49655 -1804 1.2805812e-038
-541.20001 239.49655 -1804 1.2805814e-038
-544.31036 239.49655 -1804 1.2805814e-038
-547.42072 239.49655 -1804 1.3173524e-038
-550.53101 239.49655 -1804 1.3266077e-038
-553.64136 239.49655 -1804 1.3266079e-038
-569.86554 235.91206 -1777 1.2990558e-038
-570.02759 234.71724 -1768 1.2990558e-038
-573.07587 234.71724 -1768 1.2990915e-038
-576.12415 234.71724 -1768 1.2990915e-038
-579.17242 234.71724 -1768 1.2990915e-038
-582.2207 234.71724 -1768 1.2990915e-038
-585.26898 234.71724 -1768 1.2989846e-038
-588.31726 234.71724 -1768 1.298949e-038
-594.39655 232.32759 -1750 1.298949e-038
-597.41382 232.32759 -1750 1.298949e-038
-600.43103 232.32759 -1750 1.298949e-038
-603.4483 232.32759 -1750 1.298949e-038
-606.46552 232.32759 -1750 1.2897295e-038
-609.18622 229.93793 -1732 1.2897295e-038
-612.17242 229.93793 -1732 1.2897295e-038
-615.15863 229.93793 -1732 1.2897293e-038
-618.14484 229.93793 -1732 1.2897651e-038
-621.13104 229.93793 -1732 1.2897651e-038
-624.11725 229.93793 -1732 1.2898008e-038
-627.10345 229.93793 -1732 1.2898008e-038
-644.06897 225.42413 -1698 1.2898008e-038
-646.99658 225.42413 -1698 1.2898008e-038
-649.92413 225.42413 -1698 1.2990204e-038
-652.85175 225.42413 -1698 1.2990204e-038
-652.68964 224.36208 -1690 1.2621421e-038
-655.60345 224.36208 -1690 1.2621421e-038
-658.51721 224.36208 -1690 1.2621421e-038
-661.43103 224.36208 -1690 1.2621421e-038
-664.34485 224.36208 -1690 1.2621421e-038
-667.25861 224.36208 -1690 1.2621421e-038
-674.61206 221.04311 -1665 1.2621421e-038
-677.48279 221.04311 -1665 1.2621421e-038
-680.35345 221.04311 -1665 1.2713617e-038
-683.22412 221.04311 -1665 1.2713977e-038
-686.09485 221.04311 -1665 1.2622141e-038
-688.96552 221.04311 -1665 1.2621427e-038
-691.83618 221.04311 -1665 1.234592e-038
-691.36896 219.98103 -1657 1.2161529e-038
-703.66553 215.86552 -1626 1.2253724e-038
-706.46899 215.86552 -1626 1.2253724e-038
-709.2724 215.86552 -1626 1.2253724e-038
-712.07587 215.86552 -1626 1.2253724e-038
-714.87933 215.86552 -1626 1.2253722e-038
-717.68274 215.86552 -1626 1.1885654e-038
-720.48621 215.86552 -1626 1.1885654e-038
-723.28967 215.86552 -1626 1.2070044e-038
-729.64136 212.81207 -1603 1.234592e-038
-732.40515 212.81207 -1603 1.234592e-038
-735.16895 212.81207 -1603 1.2161172e-038
-737.93274 212.81207 -1603 1.2253367e-038
-740.69653 212.81207 -1603 1.2437401e-038
-743.46033 212.81207 -1603 1.2437401e-038
-746.22412 212.81207 -1603 1.2253013e-038
-748.98792 212.81207 -1603 1.225301e-038
-751.75171 212.81207 -1603 1.2068621e-038
-756.14484 210.95345 -1589 1.2529597e-038
-758.88446 210.95345 -1589 1.2437401e-038
-761.62415 210.95345 -1589 1.2345205e-038
-764.36377 210.95345 -1589 1.225301e-038
-767.10345 210.95345 -1589 1.1976423e-038
-769.84308 210.95345 -1589 1.1976423e-038
-770.71722 208.96207 -1574 1.1976423e-038
-773.43103 208.96207 -1574 1.2068619e-038
-787.21033 206.17413 -1553 1.1793831e-038
-789.88794 206.17413 -1553 1.1701635e-038
-792.56549 206.17413 -1553 1.1701635e-038
-795.2431 206.17413 -1553 1.1517244e-038
-797.92072 206.17413 -1553 1.1517244e-038
-796.98969 205.24483 -1546 1.1517244e-038
-799.65515 205.24483 -1546 1.1517244e-038
-802.32068 205.24483 -1546 1.1517244e-038
79.724136 302.95172 -2312 1.1144478e-038
68.674141 307.01379 -2343 1.1052645e-038
64.634483 307.01379 -2343 1.1052652e-038
60.594826 307.01379 -2343 1.1422878e-038
56.555172 307.01379 -2343 1.2344834e-038
52.515518 307.01379 -2343 1.2713617e-038
48.475861 307.01379 -2343 1.2713617e-038
44.436207 307.01379 -2343 1.243703e-038
40.396553 307.01379 -2343 1.2160443e-038
32.09655 304.91724 -2327 1.2621421e-038
28.084482 304.91724 -2327 1.2621421e-038
24.072414 304.91724 -2327 1.2621421e-038
20.060345 304.91724 -2327 1.2621421e-038
16.048275 304.91724 -2327 1.2621421e-038
12.036207 304.91724 -2327 1.2621421e-038
7.972414 302.95172 -2312 1.2621422e-038
3.986207 302.95172 -2312 1.2621062e-038
-7.8655171 298.88965 -2281 1.2619269e-038
-11.798276 298.88965 -2281 1.2711463e-038
-19.663794 298.88965 -2281 1.2804016e-038
-23.596552 298.88965 -2281 1.2896569e-038
-27.52931 298.88965 -2281 1.2896569e-038
-31.462069 298.88965 -2281 1.2804729e-038
-35.162067 296.92413 -2266 1.2712533e-038
-42.975861 296.92413 -2266 1.2528499e-038
-61.710346 293.12415 -2237 1.2897279e-038
-69.424141 293.12415 -2237 1.2989476e-038
-73.281036 293.12415 -2237 1.3081672e-038
-77.137932 293.12415 -2237 1.3173868e-038
-80.994827 293.12415 -2237 1.3173868e-038
-84.320686 291.28964 -2223 1.3266063e-038
-88.15345 291.28964 -2223 1.3173868e-038
-95.172417 289.32413 -2208 1.3173868e-038
-98.979309 289.32413 -2208 1.3173868e-038
-102.78621 289.32413 -2208 1.3266063e-038
-106.5931 289.32413 -2208 1.3358259e-038
-154.96552 280.41379 -2140 1.3449743e-038
-158.65517 280.41379 -2140 1.3449743e-038
-162.34483 280.41379 -2140 1.3449743e-038
-166.03448 280.41379 -2140 1.3449743e-038
-169.72414 280.41379 -2140 1.3449743e-038
-173.41379 280.41379 -2140 1.3541938e-038
-177.10345 280.41379 -2140 1.3726329e-038
-180.79311 280.41379 -2140 1.3726329e-038
-184.48276 280.41379 -2140 1.3541938e-038
-199.23276 275.30344 -2101 1.3818525e-038
-202.85518 275.30344 -2101 1.3818525e-038
-206.47758 275.30344 -2101 1.3726329e-038
-210.10001 275.30344 -2101 1.3541938e-038
-213.72241 275.30344 -2101 1.3357547e-038
-234.75517 270.32413 -2063 1.3449743e-038
-238.31207 270.32413 -2063 1.3265351e-038
-241.86897 270.32413 -2063 1.3265351e-038
-245.42586 270.32413 -2063 1.3357547e-038
-247.53448 268.75171 -2051 1.3449743e-038
-251.07069 268.75171 -2051 1.3449743e-038
-254.6069 268.75171 -2051 1.3449743e-038
-258.1431 268.75171 -2051 1.3449743e-038
-261.67932 268.75171 -2051 1.3449743e-038
-272.59656 265.6069 -2027 1.3449743e-038
-276.09137 265.6069 -2027 1.344974e-038
-279.58621 265.6069 -2027 1.3266063e-038
-283.08102 265.6069 -2027 1.3266063e-038
-286.57587 265.6069 -2027 1.3450454e-038
-288.35345 264.03448 -2015 1.354265e-038
-291.82758 264.03448 -2015 1.3634846e-038
-295.30173 264.03448 -2015 1.3634846e-038
-298.77585 264.03448 -2015 1.354265e-038
-302.25 264.03448 -2015 1.354265e-038
-305.72415 264.03448 -2015 1.3450454e-038
-309.19827 264.03448 -2015 1.4003628e-038
-312.67242 264.03448 -2015 1.3819237e-038
-314.26379 262.46207 -2003 1.3727041e-038
-317.71725 262.46207 -2003 1.3634846e-038
-321.17068 262.46207 -2003 1.3634846e-038
-339.48276 258.0069 -1969 1.3634134e-038
-342.87759 258.0069 -1969 1.3634134e-038
-346.2724 258.0069 -1969 1.3634134e-038
-349.66724 258.0069 -1969 1.3634134e-038
-353.06207 258.0069 -1969 1.3449743e-038
-356.45691 258.0069 -1969 1.3449743e-038
-359.85172 258.0069 -1969 1.3449743e-038
-363.24655 258.0069 -1969 1.3449743e-038
-366.64139 258.0069 -1969 1.3449743e-038
-385 252.24138 -1925 1.3541938e-038
-388.31897 252.24138 -1925 1.3541938e-038
-391.63794 252.24138 -1925 1.3634134e-038
-394.95691 252.24138 -1925 1.3634134e-038
-398.27585 252.24138 -1925 1.3634134e-038
-401.59482 252.24138 -1925 1.3634134e-038
-404.91379 252.24138 -1925 1.3634134e-038
-408.23276 252.24138 -1925 1.3634134e-038
-411.55173 252.24138 -1925 1.3634134e-038
-412.71552 250.93103 -1915 1.3634134e-038
-416.01724 250.93103 -1915 1.3542297e-038
-419.31897 250.93103 -1915 1.3358623e-038
-422.6207 250.93103 -1915 1.3266785e-038
-425.92242 250.93103 -1915 1.3175307e-038
-429.22415 250.93103 -1915 1.3175307e-038
-444.77759 246.73793 -1883 1.3175307e-038
-448.02414 246.73793 -1883 1.3175307e-038
-451.27069 246.73793 -1883 1.3175307e-038
-454.51724 246.73793 -1883 1.3175307e-038
-457.76379 246.73793 -1883 1.3175307e-038
-461.01035 246.73793 -1883 1.3175307e-038
-461.79138 245.42758 -1873 1.3175309e-038
-465.02069 245.42758 -1873 1.3174592e-038
-468.25 245.42758 -1873 1.3174595e-038
-471.47931 245.42758 -1873 1.3174595e-038
-474.70862 245.42758 -1873 1.3174595e-038
-477.93793 245.42758 -1873 1.3174595e-038
-499.33447 240.1862 -1833 1.2990204e-038
-502.49484 240.1862 -1833 1.3174595e-038
-505.65518 240.1862 -1833 1.326679e-038
-508.81552 240.1862 -1833 1.3358986e-038
-511.97586 240.1862 -1833 1.3358986e-038
-515.13623 240.1862 -1833 1.3358986e-038
-518.29657 240.1862 -1833 1.3358986e-038
-521.45691 240.1862 -1833 1.3358986e-038
-524.61725 240.1862 -1833 1.3358986e-038
-531.86896 236.3862 -1804 1.3082399e-038
-534.97931 236.3862 -1804 1.2990204e-038
-538.08966 236.3862 -1804 1.2898008e-038
-541.20001 236.3862 -1804 1.2805814e-038
-544.31036 236.3862 -1804 1.2898008e-038
-547.42072 236.3862 -1804 1.3173524e-038
-550.53101 236.3862 -1804 1.3266077e-038
-553.64136 236.3862 -1804 1.3266079e-038
-556.75171 236.3862 -1804 1.3358271e-038
-570.02759 231.66896 -1768 1.2990558e-038
-573.07587 231.66896 -1768 1.2990915e-038
-576.12415 231.66896 -1768 1.2990915e-038
-579.17242 231.66896 -1768 1.2990915e-038
-582.2207 231.66896 -1768 1.2990915e-038
-585.26898 231.66896 -1768 1.2989846e-038
-597.41382 229.31035 -1750 1.298949e-038
-600.43103 229.31035 -1750 1.298949e-038
-603.4483 229.31035 -1750 1.2897295e-038
-606.46552 229.31035 -1750 1.2712903e-038
-609.18622 226.95172 -1732 1.2712903e-038
-612.17242 226.95172 -1732 1.2712903e-038
-615.15863 226.95172 -1732 1.2712903e-038
-618.14484 226.95172 -1732 1.2897292e-038
-621.13104 226.95172 -1732 1.2898009e-038
-624.11725 226.95172 -1732 1.3082399e-038
-644.06897 222.49655 -1698 1.2805812e-038
-646.99658 222.49655 -1698 1.2898008e-038
-649.92413 222.49655 -1698 1.2898008e-038
-652.85175 222.49655 -1698 1.2898008e-038
-655.60345 221.44827 -1690 1.2621421e-038
-658.51721 221.44827 -1690 1.2621421e-038
-661.43103 221.44827 -1690 1.2621421e-038
-664.34485 221.44827 -1690 1.2621421e-038
-674.61206 218.17241 -1665 1.2621421e-038
-677.48279 218.17241 -1665 1.2621421e-038
-680.35345 218.17241 -1665 1.2713617e-038
-683.22412 218.17241 -1665 1.2713977e-038
-686.09485 218.17241 -1665 1.2622141e-038
-688.96552 218.17241 -1665 1.2621427e-038
-691.83618 218.17241 -1665 1.234592e-038
-691.36896 217.12415 -1657 1.2161529e-038
-700.86206 213.06207 -1626 1.2253724e-038
-703.66553 213.06207 -1626 1.2253724e-038
-706.46899 213.06207 -1626 1.2253724e-038
-709.2724 213.06207 -1626 1.2253724e-038
-712.07587 213.06207 -1626 1.2253724e-038
-714.87933 213.06207 -1626 1.2253722e-038
-717.68274 213.06207 -1626 1.1793458e-038
-720.48621 213.06207 -1626 1.1793458e-038
-723.28967 213.06207 -1626 1.1977848e-038
-729.64136 210.04828 -1603 1.2161527e-038
-732.40515 210.04828 -1603 1.216117e-038
-735.16895 210.04828 -1603 1.1977139e-038
-737.93274 210.04828 -1603 1.2161172e-038
-740.69653 210.04828 -1603 1.2345205e-038
-743.46033 210.04828 -1603 1.2345207e-038
-746.22412 210.04828 -1603 1.2345207e-038
-748.98792 210.04828 -1603 1.2068621e-038
-751.75171 210.04828 -1603 1.206862e-038
-756.14484 208.21379 -1589 1.225301e-038
-758.88446 208.21379 -1589 1.2160814e-038
-761.62415 208.21379 -1589 1.2068619e-038
-764.36377 208.21379 -1589 1.2068619e-038
-767.10345 208.21379 -1589 1.1976423e-038
-769.84308 208.21379 -1589 1.1976423e-038
-768.00342 206.24828 -1574 1.1884227e-038
-770.71722 206.24828 -1574 1.2160814e-038
-773.43103 206.24828 -1574 1.2160814e-038
-776.14484 206.24828 -1574 1.2068619e-038
-778.85864 206.24828 -1574 1.1608361e-038
-787.21033 203.49655 -1553 1.1793831e-038
-789.88794 203.49655 -1553 1.1701635e-038
-792.56549 203.49655 -1553 1.1701635e-038
-795.2431 203.49655 -1553 1.1517244e-038
-797.92072 203.49655 -1553 1.1517244e-038
-800.59827 203.49655 -1553 1.1517244e-038
-803.27588 203.49655 -1553 1.1517244e-038
-805.95343 203.49655 -1553 1.1517244e-038
79.724136 298.96552 -2312 1.1144478e-038
68.674141 302.97415 -2343 1.1052645e-038
64.634483 302.97415 -2343 1.1053372e-038
60.594826 302.97415 -2343 1.1607269e-038
56.555172 302.97415 -2343 1.2344834e-038
52.515518 302.97415 -2343 1.243703e-038
48.475861 302.97415 -2343 1.243703e-038
44.436207 302.97415 -2343 1.2160443e-038
40.396553 302.97415 -2343 1.2068247e-038
36.10862 300.90518 -2327 1.2160443e-038
32.09655 300.90518 -2327 1.2529225e-038
28.084482 300.90518 -2327 1.2621421e-038
24.072414 300.90518 -2327 1.2621421e-038
20.060345 300.90518 -2327 1.2621421e-038
16.048275 300.90518 -2327 1.2621421e-038
11.958621 298.96552 -2312 1.2621421e-038
7.972414 298.96552 -2312 1.2621421e-038
3.986207 298.96552 -2312 1.2529227e-038
-19.663794 294.95691 -2281 1.2804016e-038
-23.596552 294.95691 -2281 1.2896569e-038
-27.52931 294.95691 -2281 1.2896569e-038
-31.462069 294.95691 -2281 1.2712533e-038
-35.162067 293.01724 -2266 1.2620338e-038
-39.068966 293.01724 -2266 1.2528141e-038
-42.975861 293.01724 -2266 1.2528141e-038
-46.882759 293.01724 -2266 1.2620694e-038
-57.853447 289.26724 -2237 1.2989832e-038
-61.710346 289.26724 -2237 1.3082028e-038
-65.567238 289.26724 -2237 1.3266063e-038
-69.424141 289.26724 -2237 1.3173868e-038
-73.281036 289.26724 -2237 1.3173868e-038
-77.137932 289.26724 -2237 1.3173868e-038
-80.48793 287.45691 -2223 1.3173868e-038
-84.320686 287.45691 -2223 1.3173868e-038
-98.979309 285.51724 -2208 1.3266063e-038
-102.78621 285.51724 -2208 1.3358259e-038
-151.27586 276.72415 -2140 1.3541938e-038
-154.96552 276.72415 -2140 1.3541938e-038
-158.65517 276.72415 -2140 1.3541938e-038
-162.34483 276.72415 -2140 1.3541938e-038
-169.72414 276.72415 -2140 1.3541938e-038
-173.41379 276.72415 -2140 1.3634134e-038
-177.10345 276.72415 -2140 1.3726329e-038
-180.79311 276.72415 -2140 1.3726329e-038
-184.48276 276.72415 -2140 1.3541938e-038
-195.61035 271.68103 -2101 1.3726329e-038
-199.23276 271.68103 -2101 1.3818525e-038
-202.85518 271.68103 -2101 1.3818525e-038
-206.47758 271.68103 -2101 1.3726329e-038
-210.10001 271.68103 -2101 1.3634134e-038
-213.72241 271.68103 -2101 1.3449743e-038
-231.19827 266.76724 -2063 1.3634134e-038
-234.75517 266.76724 -2063 1.3449743e-038
-238.31207 266.76724 -2063 1.3357547e-038
-241.86897 266.76724 -2063 1.3265351e-038
-245.42586 266.76724 -2063 1.3265351e-038
-247.53448 265.21552 -2051 1.3357547e-038
-251.07069 265.21552 -2051 1.3449743e-038
-254.6069 265.21552 -2051 1.3449743e-038
-258.1431 265.21552 -2051 1.3449743e-038
-269.10172 262.11206 -2027 1.3449743e-038
-272.59656 262.11206 -2027 1.3449743e-038
-276.09137 262.11206 -2027 1.344974e-038
-279.58621 262.11206 -2027 1.3266063e-038
-283.08102 262.11206 -2027 1.3266063e-038
-286.57587 262.11206 -2027 1.3450454e-038
-288.35345 260.56033 -2015 1.354265e-038
-291.82758 260.56033 -2015 1.3634846e-038
-295.30173 260.56033 -2015 1.3634846e-038
-298.77585 260.56033 -2015 1.354265e-038
-302.25 260.56033 -2015 1.354265e-038
-305.72415 260.56033 -2015 1.3450454e-038
-312.67242 260.56033 -2015 1.3819237e-038
-314.26379 259.00861 -2003 1.3727041e-038
-317.71725 259.00861 -2003 1.3634846e-038
-321.17068 259.00861 -2003 1.354265e-038
-324.62415 259.00861 -2003 1.3450454e-038
-339.48276 254.61208 -1969 1.3634134e-038
-342.87759 254.61208 -1969 1.3634134e-038
-346.2724 254.61208 -1969 1.3634134e-038
-349.66724 254.61208 -1969 1.3634134e-038
-353.06207 254.61208 -1969 1.3357547e-038
-356.45691 254.61208 -1969 1.3357547e-038
-359.85172 254.61208 -1969 1.3449743e-038
-378.36206 248.92241 -1925 1.3449743e-038
-381.68103 248.92241 -1925 1.3541938e-038
-385 248.92241 -1925 1.3541938e-038
-388.31897 248.92241 -1925 1.3634134e-038
-391.63794 248.92241 -1925 1.3726329e-038
-394.95691 248.92241 -1925 1.3726329e-038
-398.27585 248.92241 -1925 1.3726329e-038
-401.59482 248.92241 -1925 1.3726329e-038
-404.91379 248.92241 -1925 1.3634134e-038
-406.11206 247.6293 -1915 1.3634134e-038
-409.41379 247.6293 -1915 1.3634134e-038
-412.71552 247.6293 -1915 1.3634134e-038
-416.01724 247.6293 -1915 1.3541938e-038
-419.31897 247.6293 -1915 1.3266786e-038
-422.6207 247.6293 -1915 1.3266785e-038
-425.92242 247.6293 -1915 1.3175307e-038
-429.22415 247.6293 -1915 1.3175307e-038
-444.77759 243.49138 -1883 1.3083111e-038
-448.02414 243.49138 -1883 1.3175307e-038
-451.27069 243.49138 -1883 1.3175307e-038
-454.51724 243.49138 -1883 1.3175307e-038
-457.76379 243.49138 -1883 1.3175307e-038
-461.01035 243.49138 -1883 1.3267502e-038
-461.79138 242.19827 -1873 1.3267145e-038
-465.02069 242.19827 -1873 1.3174593e-038
-468.25 242.19827 -1873 1.3174595e-038
-471.47931 242.19827 -1873 1.3174595e-038
-474.70862 242.19827 -1873 1.3174595e-038
-477.93793 242.19827 -1873 1.3174595e-038
-489.34827 238.31897 -1843 1.3174595e-038
-502.49484 237.02586 -1833 1.2990204e-038
-505.65518 237.02586 -1833 1.3174595e-038
-508.81552 237.02586 -1833 1.326679e-038
-511.97586 237.02586 -1833 1.326679e-038
-515.13623 237.02586 -1833 1.326679e-038
-518.29657 237.02586 -1833 1.326679e-038
-521.45691 237.02586 -1833 1.326679e-038
-524.61725 237.02586 -1833 1.326679e-038
-531.86896 233.27586 -1804 1.3082399e-038
-534.97931 233.27586 -1804 1.3082399e-038
-538.08966 233.27586 -1804 1.2990204e-038
-541.20001 233.27586 -1804 1.2898008e-038
-544.31036 233.27586 -1804 1.2898008e-038
-547.42072 233.27586 -1804 1.2989133e-038
-550.53101 233.27586 -1804 1.3173524e-038
-553.64136 233.27586 -1804 1.3265718e-038
-556.75171 233.27586 -1804 1.3266076e-038
-579.17242 228.6207 -1768 1.2990915e-038
-579.2569 227.45689 -1759 1.2990915e-038
-600.43103 226.29311 -1750 1.298949e-038
-612.17242 223.96552 -1732 1.2712903e-038
-615.15863 223.96552 -1732 1.2712902e-038
-618.14484 223.96552 -1732 1.2805096e-038
-621.13104 223.96552 -1732 1.2805814e-038
-620.87415 222.80173 -1723 1.3082399e-038
-638.21381 219.56897 -1698 1.2621421e-038
-641.14136 219.56897 -1698 1.2713617e-038
-644.06897 219.56897 -1698 1.2713617e-038
-646.99658 219.56897 -1698 1.2805812e-038
-649.92413 219.56897 -1698 1.2805812e-038
-652.85175 219.56897 -1698 1.2805812e-038
-658.51721 218.53448 -1690 1.2621421e-038
-657.90863 217.3707 -1681 1.2621421e-038
-660.80688 217.3707 -1681 1.2621421e-038
-666.60345 217.3707 -1681 1.2621421e-038
-669.50171 217.3707 -1681 1.2621421e-038
-672.40002 217.3707 -1681 1.243703e-038
-680.35345 215.30173 -1665 1.2713617e-038
-683.22412 215.30173 -1665 1.2713977e-038
-686.09485 215.30173 -1665 1.2622141e-038
-688.96552 215.30173 -1665 1.2621427e-038
-691.83618 215.30173 -1665 1.234592e-038
-703.66553 210.25862 -1626 1.2253724e-038
-706.46899 210.25862 -1626 1.2253724e-038
-709.2724 210.25862 -1626 1.2253724e-038
-712.07587 210.25862 -1626 1.2253724e-038
-714.87933 210.25862 -1626 1.2253722e-038
-717.68274 210.25862 -1626 1.1793457e-038
-720.48621 210.25862 -1626 1.1793457e-038
-723.28967 210.25862 -1626 1.1885652e-038
-726.09308 210.25862 -1626 1.2070044e-038
-729.64136 207.28448 -1603 1.2069692e-038
-732.40515 207.28448 -1603 1.2069333e-038
-735.16895 207.28448 -1603 1.197678e-038
-737.93274 207.28448 -1603 1.197678e-038
-740.69653 207.28448 -1603 1.2345205e-038
-743.46033 207.28448 -1603 1.2437401e-038
-746.22412 207.28448 -1603 1.2345207e-038
-748.98792 207.28448 -1603 1.2068621e-038
-751.75171 207.28448 -1603 1.2068619e-038
-751.2207 206.3793 -1596 1.2068619e-038
-753.97241 206.3793 -1596 1.2160814e-038
-759.47589 206.3793 -1596 1.225301e-038
-758.88446 205.47414 -1589 1.2160814e-038
-761.62415 205.47414 -1589 1.2068619e-038
-764.36377 205.47414 -1589 1.2068619e-038
-765.28967 203.53448 -1574 1.2160814e-038
-768.00342 203.53448 -1574 1.2160814e-038
-770.71722 203.53448 -1574 1.2345205e-038
-773.43103 203.53448 -1574 1.2437401e-038
-776.14484 203.53448 -1574 1.2253369e-038
-778.85864 203.53448 -1574 1.1884948e-038
-792.56549 200.81897 -1553 1.1701635e-038
-795.2431 200.81897 -1553 1.1793831e-038
-797.92072 200.81897 -1553 1.1793831e-038
-800.59827 200.81897 -1553 1.1793831e-038
-803.27588 200.81897 -1553 1.1793831e-038
-805.95343 200.81897 -1553 1.1793831e-038
83.710342 294.97931 -2312 1.0775695e-038
79.724136 294.97931 -2312 1.0775695e-038
64.634483 298.93448 -2343 1.1238124e-038
60.594826 298.93448 -2343 1.1607269e-038
56.555172 298.93448 -2343 1.2068247e-038
52.515518 298.93448 -2343 1.2160443e-038
48.475861 298.93448 -2343 1.2160443e-038
44.436207 298.93448 -2343 1.2068247e-038
40.396553 298.93448 -2343 1.2068247e-038
36.10862 296.8931 -2327 1.2160443e-038
32.09655 296.8931 -2327 1.243703e-038
28.084482 296.8931 -2327 1.2529225e-038
24.072414 296.8931 -2327 1.2529225e-038
19.931034 294.97931 -2312 1.2529225e-038
15.944828 294.97931 -2312 1.2529225e-038
11.958621 294.97931 -2312 1.2529225e-038
7.972414 294.97931 -2312 1.2529225e-038
3.986207 294.97931 -2312 1.2528867e-038
-0 294.97931 -2312 1.2527074e-038
-7.8655171 291.02414 -2281 1.2619269e-038
-11.798276 291.02414 -2281 1.2711463e-038
-15.731034 291.02414 -2281 1.2711822e-038
-19.663794 291.02414 -2281 1.2804016e-038
-23.596552 291.02414 -2281 1.2896569e-038
-27.52931 291.02414 -2281 1.2896569e-038
-31.255173 289.11035 -2266 1.2620338e-038
-35.162067 289.11035 -2266 1.2620338e-038
-39.068966 289.11035 -2266 1.2528141e-038
-42.975861 289.11035 -2266 1.2528141e-038
-57.853447 285.41034 -2237 1.3082028e-038
-61.710346 285.41034 -2237 1.3266063e-038
-65.567238 285.41034 -2237 1.354265e-038
-69.424141 285.41034 -2237 1.3358259e-038
-73.281036 285.41034 -2237 1.3173868e-038
-77.137932 285.41034 -2237 1.3173868e-038
-80.48793 283.62415 -2223 1.3173868e-038
-84.320686 283.62415 -2223 1.2989476e-038
-102.78621 281.71036 -2208 1.3358259e-038
-106.5931 281.71036 -2208 1.3450454e-038
-144.77069 274.69312 -2153 1.3357547e-038
-148.48276 274.69312 -2153 1.3541938e-038
-154.96552 273.03448 -2140 1.3634134e-038
-158.65517 273.03448 -2140 1.3634134e-038
-162.34483 273.03448 -2140 1.3634134e-038
-177.10345 273.03448 -2140 1.3726329e-038
-180.79311 273.03448 -2140 1.3726329e-038
-195.61035 268.05862 -2101 1.3726329e-038
-199.23276 268.05862 -2101 1.3818525e-038
-202.85518 268.05862 -2101 1.3818525e-038
-206.47758 268.05862 -2101 1.3818525e-038
-210.10001 268.05862 -2101 1.3634134e-038
-213.72241 268.05862 -2101 1.3449743e-038
-231.19827 263.21036 -2063 1.3726329e-038
-234.75517 263.21036 -2063 1.3541938e-038
-238.31207 263.21036 -2063 1.3357547e-038
-241.86897 263.21036 -2063 1.3265351e-038
-245.42586 263.21036 -2063 1.3265351e-038
-247.53448 261.67932 -2051 1.3357547e-038
-251.07069 261.67932 -2051 1.3357547e-038
-254.6069 261.67932 -2051 1.3449743e-038
-258.1431 261.67932 -2051 1.3449743e-038
-269.10172 258.61725 -2027 1.3449743e-038
-272.59656 258.61725 -2027 1.3449743e-038
-276.09137 258.61725 -2027 1.344974e-038
-279.58621 258.61725 -2027 1.3266063e-038
-283.08102 258.61725 -2027 1.3266063e-038
-284.8793 257.08621 -2015 1.3450454e-038
-288.35345 257.08621 -2015 1.354265e-038
-291.82758 257.08621 -2015 1.3634846e-038
-295.30173 257.08621 -2015 1.3634846e-038
-298.77585 257.08621 -2015 1.354265e-038
-302.25 257.08621 -2015 1.3450454e-038
-305.72415 257.08621 -2015 1.3450454e-038
-307.3569 255.55518 -2003 1.3450454e-038
-310.81033 255.55518 -2003 1.3450454e-038
-314.26379 255.55518 -2003 1.3450454e-038
-317.71725 255.55518 -2003 1.3358259e-038
-321.17068 255.55518 -2003 1.3358259e-038
-324.62415 255.55518 -2003 1.335826e-038
-339.48276 251.21724 -1969 1.3634134e-038
-342.87759 251.21724 -1969 1.3634134e-038
-346.2724 251.21724 -1969 1.3634134e-038
-349.66724 251.21724 -1969 1.3634134e-038
-353.06207 251.21724 -1969 1.3265351e-038
-354.46552 249.8138 -1958 1.3265351e-038
-357.84137 249.8138 -1958 1.3357547e-038
-378.36206 245.60345 -1925 1.3541938e-038
-381.68103 245.60345 -1925 1.3541938e-038
-385 245.60345 -1925 1.3634134e-038
-388.31897 245.60345 -1925 1.3726329e-038
-391.63794 245.60345 -1925 1.3726329e-038
-394.95691 245.60345 -1925 1.3818525e-038
-398.27585 245.60345 -1925 1.3818525e-038
-401.59482 245.60345 -1925 1.3818525e-038
-404.91379 245.60345 -1925 1.3726329e-038
-406.11206 244.32759 -1915 1.3634134e-038
-409.41379 244.32759 -1915 1.3634134e-038
-412.71552 244.32759 -1915 1.3541938e-038
-416.01724 244.32759 -1915 1.3450101e-038
-419.31897 244.32759 -1915 1.3266427e-038
-422.6207 244.32759 -1915 1.3266785e-038
-425.92242 244.32759 -1915 1.3175307e-038
-429.22415 244.32759 -1915 1.3175307e-038
-432.52585 244.32759 -1915 1.3175307e-038
-444.77759 240.24483 -1883 1.2990915e-038
-448.02414 240.24483 -1883 1.3083111e-038
-451.27069 240.24483 -1883 1.3175307e-038
-454.51724 240.24483 -1883 1.3175307e-038
-457.76379 240.24483 -1883 1.3267502e-038
-458.56207 238.96896 -1873 1.3359339e-038
-461.79138 238.96896 -1873 1.3359339e-038
-465.02069 238.96896 -1873 1.3174593e-038
-468.25 238.96896 -1873 1.3174595e-038
-489.34827 235.14137 -1843 1.2898008e-038
-492.52585 235.14137 -1843 1.2898008e-038
-495.70346 235.14137 -1843 1.2621421e-038
-498.88104 235.14137 -1843 1.2529225e-038
-502.49484 233.86552 -1833 1.2805812e-038
-505.65518 233.86552 -1833 1.2990204e-038
-508.81552 233.86552 -1833 1.3082399e-038
-511.97586 233.86552 -1833 1.3082399e-038
-515.13623 233.86552 -1833 1.3082399e-038
-518.29657 233.86552 -1833 1.3082399e-038
-521.45691 233.86552 -1833 1.3082399e-038
-534.97931 230.16551 -1804 1.3174595e-038
-538.08966 230.16551 -1804 1.3082399e-038
-541.20001 230.16551 -1804 1.2898008e-038
-544.31036 230.16551 -1804 1.289729e-038
-547.42072 230.16551 -1804 1.2897295e-038
-550.53101 230.16551 -1804 1.2989133e-038
-553.64136 230.16551 -1804 1.3081686e-038
-556.75171 230.16551 -1804 1.3081684e-038
-608.99139 219.83104 -1723 1.2805099e-038
-611.9621 219.83104 -1723 1.2805099e-038
-618.14484 220.97931 -1732 1.2805455e-038
-617.90344 219.83104 -1723 1.2805455e-038
-620.87415 219.83104 -1723 1.2805812e-038
-626.81549 219.83104 -1723 1.2805812e-038
-629.78619 219.83104 -1723 1.2805812e-038
-638.21381 216.64137 -1698 1.2529225e-038
-641.14136 216.64137 -1698 1.2621421e-038
-644.06897 216.64137 -1698 1.2713617e-038
-646.99658 216.64137 -1698 1.2713617e-038
-649.92413 216.64137 -1698 1.2805812e-038
-652.85175 216.64137 -1698 1.2805812e-038
-658.51721 215.6207 -1690 1.2621421e-038
-657.90863 214.47241 -1681 1.2621421e-038
-660.80688 214.47241 -1681 1.2621421e-038
-663.7052 214.47241 -1681 1.2621421e-038
-666.60345 214.47241 -1681 1.2621421e-038
-669.50171 214.47241 -1681 1.2621421e-038
-680.35345 212.43103 -1665 1.2713617e-038
-683.22412 212.43103 -1665 1.2713977e-038
-686.09485 212.43103 -1665 1.2622141e-038
-688.96552 212.43103 -1665 1.2621427e-038
-691.83618 212.43103 -1665 1.234592e-038
-706.46899 207.45517 -1626 1.2253724e-038
-709.2724 207.45517 -1626 1.2253724e-038
-712.07587 207.45517 -1626 1.2253724e-038
-714.87933 207.45517 -1626 1.2253722e-038
-717.68274 207.45517 -1626 1.1701263e-038
-720.48621 207.45517 -1626 1.1701263e-038
-723.28967 207.45517 -1626 1.1885652e-038
-726.09308 207.45517 -1626 1.2069685e-038
-728.89655 207.45517 -1626 1.2069688e-038
-729.64136 204.52069 -1603 1.2161529e-038
-732.40515 204.52069 -1603 1.2161529e-038
-735.16895 204.52069 -1603 1.216117e-038
-737.93274 204.52069 -1603 1.2253367e-038
-740.69653 204.52069 -1603 1.243776e-038
-743.46033 204.52069 -1603 1.2621794e-038
-746.22412 204.52069 -1603 1.2621794e-038
-745.71722 203.62758 -1596 1.2345208e-038
-748.46899 203.62758 -1596 1.2160816e-038
-751.2207 203.62758 -1596 1.2160814e-038
-753.97241 203.62758 -1596 1.225301e-038
-756.72412 203.62758 -1596 1.2345205e-038
-759.47589 203.62758 -1596 1.2345205e-038
-762.2276 203.62758 -1596 1.225301e-038
-765.28967 200.82069 -1574 1.2160814e-038
-768.00342 200.82069 -1574 1.2160814e-038
-770.71722 200.82069 -1574 1.2345205e-038
-773.43103 200.82069 -1574 1.2437401e-038
-776.14484 200.82069 -1574 1.2069698e-038
-778.85864 200.82069 -1574 1.1700195e-038
-778.09656 199.92758 -1567 1.1517244e-038
-795.2431 198.14137 -1553 1.1793831e-038
-797.92072 198.14137 -1553 1.1793831e-038
83.710342 290.9931 -2312 1.0775695e-038
68.674141 294.89484 -2343 1.1052642e-038
64.634483 294.89484 -2343 1.1238124e-038
60.594826 294.89484 -2343 1.1607269e-038
56.555172 294.89484 -2343 1.2068247e-038
52.515518 294.89484 -2343 1.2160443e-038
48.475861 294.89484 -2343 1.2160443e-038
44.436207 294.89484 -2343 1.2068247e-038
40.396553 294.89484 -2343 1.2160443e-038
36.356895 294.89484 -2343 1.243703e-038
32.09655 292.88104 -2327 1.2529225e-038
28.084482 292.88104 -2327 1.2529225e-038
24.072414 292.88104 -2327 1.2529225e-038
20.060345 292.88104 -2327 1.2529225e-038
16.048275 292.88104 -2327 1.2529225e-038
11.958621 290.9931 -2312 1.2529225e-038
7.972414 290.9931 -2312 1.2529225e-038
3.986207 290.9931 -2312 1.2528867e-038
-0 290.9931 -2312 1.2528151e-038
-7.8655171 287.09137 -2281 1.2619269e-038
-11.798276 287.09137 -2281 1.2619269e-038
-15.731034 287.09137 -2281 1.2711461e-038
-19.663794 287.09137 -2281 1.2804014e-038
-23.596552 287.09137 -2281 1.2896569e-038
-27.52931 287.09137 -2281 1.2896569e-038
-31.255173 285.20346 -2266 1.2896566e-038
-35.162067 285.20346 -2266 1.2620338e-038
-39.068966 285.20346 -2266 1.2528142e-038
-42.975861 285.20346 -2266 1.2620694e-038
-46.882759 285.20346 -2266 1.2805085e-038
-61.710346 281.55344 -2237 1.354265e-038
-65.567238 281.55344 -2237 1.354265e-038
-69.424141 281.55344 -2237 1.3450454e-038
-73.281036 281.55344 -2237 1.3358259e-038
-76.655174 279.79138 -2223 1.3173868e-038
-80.48793 279.79138 -2223 1.3081672e-038
-84.320686 279.79138 -2223 1.2989476e-038
-88.15345 279.79138 -2223 1.2989476e-038
-102.78621 277.90344 -2208 1.3358259e-038
-109.05 274.50516 -2181 1.3450454e-038
-112.81035 274.50516 -2181 1.354265e-038
-116.57069 274.50516 -2181 1.3450456e-038
-120.33103 274.50516 -2181 1.326535e-038
-144.77069 270.98105 -2153 1.3265351e-038
-148.48276 270.98105 -2153 1.3634134e-038
-152.19482 270.98105 -2153 1.3634134e-038
-155.90689 270.98105 -2153 1.3634134e-038
-159.61897 270.98105 -2153 1.3634134e-038
-162.34483 269.34482 -2140 1.3634134e-038
-166.03448 269.34482 -2140 1.3634134e-038
-169.72414 269.34482 -2140 1.3634134e-038
-173.41379 269.34482 -2140 1.3634134e-038
-177.10345 269.34482 -2140 1.3634134e-038
-180.79311 269.34482 -2140 1.3541938e-038
-195.61035 264.43622 -2101 1.3541938e-038
-199.23276 264.43622 -2101 1.3726329e-038
-202.85518 264.43622 -2101 1.3818525e-038
-206.47758 264.43622 -2101 1.3634134e-038
-210.10001 264.43622 -2101 1.3541938e-038
-213.72241 264.43622 -2101 1.3449743e-038
-231.19827 259.65344 -2063 1.3541938e-038
-234.75517 259.65344 -2063 1.3449743e-038
-238.31207 259.65344 -2063 1.3449743e-038
-241.86897 259.65344 -2063 1.3357547e-038
-245.42586 259.65344 -2063 1.3265351e-038
-248.98276 259.65344 -2063 1.3357547e-038
-251.07069 258.1431 -2051 1.3449743e-038
-254.6069 258.1431 -2051 1.3449743e-038
-258.1431 258.1431 -2051 1.3449743e-038
-272.59656 255.12242 -2027 1.3450101e-038
-276.09137 255.12242 -2027 1.3450098e-038
-279.58621 255.12242 -2027 1.3450096e-038
-283.08102 255.12242 -2027 1.3450096e-038
-284.8793 253.61208 -2015 1.3450454e-038
-288.35345 253.61208 -2015 1.3450454e-038
-291.82758 253.61208 -2015 1.354265e-038
-295.30173 253.61208 -2015 1.354265e-038
-298.77585 253.61208 -2015 1.3450454e-038
-302.25 253.61208 -2015 1.3450454e-038
-305.72415 253.61208 -2015 1.3450454e-038
-307.3569 252.10173 -2003 1.3266063e-038
-310.81033 252.10173 -2003 1.3266063e-038
-314.26379 252.10173 -2003 1.3266063e-038
-317.71725 252.10173 -2003 1.3266063e-038
-321.17068 252.10173 -2003 1.3266063e-038
-324.62415 252.10173 -2003 1.33579e-038
-328.07758 252.10173 -2003 1.3357901e-038
-339.48276 247.82242 -1969 1.3634134e-038
-342.87759 247.82242 -1969 1.3634134e-038
-346.2724 247.82242 -1969 1.3634134e-038
-349.66724 247.82242 -1969 1.3634134e-038
-353.06207 247.82242 -1969 1.3634134e-038
-354.46552 246.43793 -1958 1.3265351e-038
-357.84137 246.43793 -1958 1.3357547e-038
-378.36206 242.28448 -1925 1.3541938e-038
-381.68103 242.28448 -1925 1.3634134e-038
-385 242.28448 -1925 1.3726329e-038
-388.31897 242.28448 -1925 1.3726329e-038
-391.63794 242.28448 -1925 1.3726329e-038
-394.95691 242.28448 -1925 1.3818525e-038
-398.27585 242.28448 -1925 1.3818525e-038
-399.50861 241.02586 -1915 1.3818525e-038
-402.81033 241.02586 -1915 1.3726329e-038
-406.11206 241.02586 -1915 1.3634134e-038
-409.41379 241.02586 -1915 1.3541938e-038
-412.71552 241.02586 -1915 1.3449743e-038
-416.01724 241.02586 -1915 1.3266069e-038
-419.31897 241.02586 -1915 1.3266067e-038
-422.6207 241.02586 -1915 1.3174949e-038
-425.92242 241.02586 -1915 1.3175307e-038
-429.22415 241.02586 -1915 1.3175307e-038
-432.52585 241.02586 -1915 1.3175307e-038
-444.77759 236.99828 -1883 1.2990915e-038
-451.27069 236.99828 -1883 1.3175307e-038
-454.51724 236.99828 -1883 1.3267502e-038
-455.33276 235.73965 -1873 1.3359698e-038
-458.56207 235.73965 -1873 1.3359698e-038
-461.79138 235.73965 -1873 1.3267504e-038
-465.02069 235.73965 -1873 1.3174593e-038
-468.25 235.73965 -1873 1.3174595e-038
-489.34827 231.96379 -1843 1.2898008e-038
-492.52585 231.96379 -1843 1.2898008e-038
-495.70346 231.96379 -1843 1.2805812e-038
-498.88104 231.96379 -1843 1.2529225e-038
-502.05862 231.96379 -1843 1.2621421e-038
-505.65518 230.70517 -1833 1.2990204e-038
-508.81552 230.70517 -1833 1.3082399e-038
-511.97586 230.70517 -1833 1.3082399e-038
-515.13623 230.70517 -1833 1.3082399e-038
-518.29657 230.70517 -1833 1.3082399e-038
-531.68964 228.3138 -1814 1.3082399e-038
-534.97931 227.05518 -1804 1.326679e-038
-538.08966 227.05518 -1804 1.3174595e-038
-541.20001 227.05518 -1804 1.3082399e-038
-544.31036 227.05518 -1804 1.2898011e-038
-547.42072 227.05518 -1804 1.2897296e-038
-550.53101 227.05518 -1804 1.2989132e-038
-553.64136 227.05518 -1804 1.298949e-038
-553.97412 225.92241 -1795 1.2989489e-038
-597.24139 217.9931 -1732 1.298949e-038
-600.2276 217.9931 -1732 1.298949e-038
-603.21381 217.9931 -1732 1.2897295e-038
-609.18622 217.9931 -1732 1.2805099e-038
-608.99139 216.86035 -1723 1.2805099e-038
-611.9621 216.86035 -1723 1.2805099e-038
-618.14484 217.9931 -1732 1.2805455e-038
-617.90344 216.86035 -1723 1.2805454e-038
-620.87415 216.86035 -1723 1.2805454e-038
-623.84485 216.86035 -1723 1.2805812e-038
-626.81549 216.86035 -1723 1.2805812e-038
-629.78619 216.86035 -1723 1.2805812e-038
