# .PCD v.7 - Point Cloud Data file format
VERSION .7
FIELDS x y z
SIZE 4 4 4
TYPE F F F
COUNT 1 1 1
WIDTH 1333
HEIGHT 1
POINTS 1333
DATA ascii
1370.262257 -466.821763 -847.018806
1362.091121 -464.799872 -846.707584
1361.456988 -464.877858 -849.478002
1368.350647 -467.056854 -855.370260
1367.713410 -467.135220 -858.154124
1367.076294 -467.213582 -860.937969
1366.439047 -467.291946 -863.721773
1365.801801 -467.370311 -866.505577
1365.164675 -467.448672 -869.289362
1364.527438 -467.527037 -872.073227
1363.890201 -467.605403 -874.857091
1363.253075 -467.683764 -877.640876
1362.615829 -467.762128 -880.424680
1361.978592 -467.840494 -883.208544
1361.341475 -467.918856 -885.992390
1360.704229 -467.997220 -888.776193
1360.066982 -468.075585 -891.559997
1359.429866 -468.153947 -894.343843
1358.792629 -468.232312 -897.127707
1358.155382 -468.310677 -899.911511
1357.518257 -468.389038 -902.695296
1364.353291 -470.575227 -908.842968
1363.713080 -470.653970 -911.640320
1363.072849 -470.732710 -914.437551
1362.432498 -470.811454 -917.234800
1361.792268 -470.890194 -920.032031
1361.151927 -470.968938 -922.829341
1360.511696 -471.047679 -925.626572
1352.420564 -469.015951 -924.965931
1351.783438 -469.094312 -927.749716
1351.146201 -469.172677 -930.533581
1350.508964 -469.251043 -933.317445
1349.871838 -469.329404 -936.101230
1349.234601 -469.407769 -938.885094
1348.597354 -469.486134 -941.668898
1347.960238 -469.564496 -944.452744
1347.322992 -469.642860 -947.236547
1346.685745 -469.721225 -950.020351
1353.468606 -471.913843 -956.396508
1352.828376 -471.992583 -959.193739
1352.188043 -472.071329 -961.991110
1344.137019 -470.034678 -961.155650
1343.499782 -470.113043 -963.939514
1342.862536 -470.191408 -966.723318
1342.225419 -470.269770 -969.507164
1348.986669 -472.465039 -975.977423
1348.346439 -472.543779 -978.774654
1347.706088 -472.622523 -981.571903
1347.065867 -472.701264 -984.369195
1346.425525 -472.780009 -987.166505
1345.785295 -472.858749 -989.963736
1345.144935 -472.937491 -992.760925
1344.504714 -473.016233 -995.558216
1343.864381 -473.094978 -998.355587
1343.224151 -473.173719 -1001.152818
1349.951714 -475.373112 -1007.770786
1349.308379 -475.452232 -1010.581463
1341.303358 -473.409945 -1009.544650
1340.663007 -473.488688 -1012.341900
1340.022777 -473.567428 -1015.139131
1339.382546 -473.646169 -1017.936362
1338.742195 -473.724912 -1020.733611
1345.448287 -475.926956 -1027.445783
1344.804831 -476.006078 -1030.256479
1344.161496 -476.085198 -1033.067156
1343.518161 -476.164317 -1035.877833
1342.874826 -476.243436 -1038.688509
1333.620028 -474.354848 -1043.111757
1332.979696 -474.433594 -1045.909127
1332.339466 -474.512334 -1048.706358
1331.699115 -474.591078 -1051.503608
1331.058884 -474.669818 -1054.300839
1330.418533 -474.748561 -1057.098088
1329.778322 -474.827304 -1059.895440
1329.137971 -474.906047 -1062.692690
1328.497740 -474.984788 -1065.489921
1325.936596 -475.299757 -1076.679003
1325.296366 -475.378498 -1079.476234
1324.656154 -475.457240 -1082.273586
1324.015803 -475.535984 -1085.070835
1323.375573 -475.614724 -1087.868066
1330.007740 -477.825848 -1094.902723
1329.364405 -477.904967 -1097.713400
1328.720968 -477.984092 -1100.524216
1328.077633 -478.063211 -1103.334893
1334.694519 -480.276255 -1110.436741
1334.048099 -480.355756 -1113.260984
1333.401659 -480.435254 -1116.085107
1332.755220 -480.514753 -1118.909230
1340.262456 -482.996597 -1126.621566
1339.612533 -483.076518 -1129.460675
1338.962648 -483.156444 -1132.300025
1338.312864 -483.236365 -1135.139236
1337.662839 -483.316292 -1137.978484
1337.013074 -483.396215 -1140.817815
1487.002147 -410.479294 193.944930
1485.226670 -410.697645 186.188107
1484.634919 -410.770426 183.602552
1484.043047 -410.843211 181.016978
1483.451295 -410.915992 178.431423
1482.859423 -410.988776 175.845849
1482.267551 -411.061560 173.260275
1481.675808 -411.134342 170.674667
1481.083937 -411.207126 168.089085
1480.492075 -411.279912 165.503444
1479.900323 -411.352693 162.917896
1479.308452 -411.425477 160.332315
1478.716579 -411.498261 157.746748
1478.124827 -411.571042 155.161193
1477.532965 -411.643827 152.575559
1476.941093 -411.716611 149.989985
1476.349341 -411.789393 147.404430
1475.757590 -411.862174 144.818875
1475.165718 -411.934958 142.233301
1474.573855 -412.007743 139.647667
1473.981992 -412.080528 137.062033
1465.820582 -410.423709 132.915379
1510.904179 -423.502947 109.313428
1502.764278 -421.843483 105.260737
1494.629736 -420.183324 101.231657
1494.027118 -420.257432 98.599041
1485.900587 -418.596315 94.605158
1485.300714 -418.670090 91.984328
1484.700850 -418.743866 89.363437
1484.100977 -418.817641 86.742606
1483.501113 -418.891418 84.121715
1490.411544 -420.702078 82.803307
1489.808927 -420.776185 80.170691
1489.206319 -420.850294 77.538016
1488.603702 -420.924402 74.905400
1488.001205 -420.998507 72.272803
1487.398588 -421.072615 69.640188
1486.795971 -421.146723 67.007572
1486.193363 -421.220832 64.374897
1485.590745 -421.294940 61.742281
1484.988249 -421.369044 59.109684
1484.385631 -421.443152 56.477069
1483.783014 -421.517260 53.844453
1483.180397 -421.591368 51.211838
1482.577779 -421.665476 48.579222
1489.447984 -423.481130 47.084373
1488.842632 -423.555571 44.439912
1488.237391 -423.630009 41.795531
1487.632150 -423.704447 39.151149
1487.026779 -423.778886 36.506809
1486.421538 -423.853324 33.862427
1449.244119 -434.126551 -196.079352
1448.633024 -434.201700 -198.748934
1448.022055 -434.276846 -201.418527
1446.649191 -437.106191 -238.925072
1446.035352 -437.181673 -241.606439
1444.194193 -437.408108 -249.650454
1443.580475 -437.483586 -252.331802
1442.966632 -437.559067 -255.013139
1442.352918 -437.634546 -257.694517
1441.739195 -437.710024 -260.375835
1441.125477 -437.785503 -263.057184
1440.511634 -437.860983 -265.738520
1439.897920 -437.936463 -268.419899
1446.433924 -439.793215 -271.374721
1445.817457 -439.869025 -274.067824
1445.200990 -439.944836 -276.760927
1444.584523 -440.020647 -279.454030
1443.968181 -440.096455 -282.147144
1443.351714 -440.172265 -284.840247
1442.735247 -440.248076 -287.533350
1434.988045 -438.540292 -289.870643
1434.374202 -438.615773 -292.551980
1440.885966 -440.475505 -295.612640
1440.269504 -440.551316 -298.305773
1439.653037 -440.627127 -300.998876
1439.036695 -440.702935 -303.691991
1438.420228 -440.778746 -306.385093
1437.803761 -440.854556 -309.078196
1437.187414 -440.930364 -311.771281
1436.570947 -441.006175 -314.464383
1435.954480 -441.081985 -317.157486
1435.338013 -441.157796 -319.850589
1434.721546 -441.233607 -322.543692
1434.105204 -441.309415 -325.236807
1433.488737 -441.385225 -327.929909
1432.872270 -441.461036 -330.623012
1432.255808 -441.536847 -333.316145
1431.639461 -441.612655 -336.009230
1431.022994 -441.688466 -338.702333
1430.406527 -441.764276 -341.395435
1429.790060 -441.840087 -344.088538
1429.173714 -441.915894 -346.781623
1428.557246 -441.991705 -349.474726
1427.940779 -442.067516 -352.167828
1427.324317 -442.143327 -354.860961
1426.707970 -442.219135 -357.554046
1434.161092 -444.343124 -361.003246
1433.541520 -444.419314 -363.709795
1432.922069 -444.495501 -366.416325
1432.302498 -444.571690 -369.122874
1431.683051 -444.647878 -371.829434
1431.063480 -444.724067 -374.535982
1414.995597 -443.659527 -408.723047
1414.379251 -443.735335 -411.416131
1413.762788 -443.811146 -414.109264
1413.146321 -443.886957 -416.802367
1386.138144 -455.950175 -638.327166
1385.512844 -456.027073 -641.058927
1384.887544 -456.103972 -643.790687
1384.262244 -456.180870 -646.522448
1383.637056 -456.257764 -649.254130
1383.011756 -456.334663 -651.985890
1382.386456 -456.411562 -654.717651
1381.761156 -456.488460 -657.449412
1381.135857 -456.565359 -660.181172
1380.510548 -456.642256 -662.912873
1379.885368 -456.719151 -665.644615
1379.260068 -456.796050 -668.376375
1386.356537 -458.963884 -673.382991
1385.728253 -459.041158 -676.128179
1385.099849 -459.118436 -678.873385
1384.471445 -459.195714 -681.618592
1383.843152 -459.272987 -684.363719
1383.214747 -459.350265 -687.108926
1382.586463 -459.427539 -689.854113
1381.958059 -459.504817 -692.599320
1381.329766 -459.582090 -695.344447
1387.433780 -461.491956 -700.185995
1386.802752 -461.569563 -702.942968
1393.225683 -463.820248 -710.892983
1392.591541 -463.898234 -713.663341
1391.957408 -463.976220 -716.433759
1391.323266 -464.054205 -719.204117
1390.689134 -464.132192 -721.974536
1390.054992 -464.210177 -724.744894
1389.420980 -464.288160 -727.515294
1381.123332 -462.268026 -727.755438
1380.492304 -462.345633 -730.512411
1379.861267 -462.423239 -733.269323
1372.532680 -460.663958 -733.777063
1371.904397 -460.741232 -736.522251
1377.968053 -462.656063 -741.540199
1377.337015 -462.733669 -744.297112
1376.705987 -462.811276 -747.054084
1376.074959 -462.888883 -749.811057
1375.443922 -462.966490 -752.567969
1374.812764 -463.044099 -755.324900
1374.181736 -463.121706 -758.081873
1373.550708 -463.199313 -760.838845
1372.919671 -463.276919 -763.595758
1372.288633 -463.354525 -766.352670
1379.274905 -465.535929 -771.841487
1378.640763 -465.613915 -774.611845
1378.006631 -465.691901 -777.382263
1377.372489 -465.769886 -780.152621
1376.738477 -465.847870 -782.923021
1376.104335 -465.925855 -785.693379
1375.470202 -466.003841 -788.463798
1374.836060 -466.081826 -791.234156
1374.201928 -466.159813 -794.004574
1373.567786 -466.237798 -796.774932
1372.933653 -466.315784 -799.545350
1372.299511 -466.393769 -802.315709
1371.665379 -466.471756 -805.086127
1371.031237 -466.549741 -807.856485
1370.397095 -466.627726 -810.626843
1369.763083 -466.705709 -813.397243
1376.697052 -468.893575 -819.114503
1376.059815 -468.971940 -821.898367
1375.422568 -469.050305 -824.682171
1374.785452 -469.128667 -827.466016
1374.148205 -469.207031 -830.249820
1373.510959 -469.285396 -833.033624
1372.873842 -469.363758 -835.817470
1372.236596 -469.442122 -838.601273
1371.599359 -469.520488 -841.385138
1370.962233 -469.598849 -844.168923
1370.324996 -469.677214 -846.952787
1362.153557 -467.641536 -846.641883
1361.519425 -467.719522 -849.412302
1368.413387 -469.912305 -855.304240
1367.776150 -469.990671 -858.088104
1367.139033 -470.069033 -860.871950
1366.501787 -470.147397 -863.655754
1365.864540 -470.225762 -866.439558
1365.227414 -470.304123 -869.223343
1364.590177 -470.382488 -872.007207
1363.952940 -470.460854 -874.791071
1363.315815 -470.539215 -877.574857
1362.678568 -470.617579 -880.358661
1362.041331 -470.695945 -883.142525
1361.404215 -470.774307 -885.926370
1360.766968 -470.852671 -888.710174
1360.129722 -470.931036 -891.493978
1359.492605 -471.009398 -894.277824
1358.855368 -471.087763 -897.061688
1358.218122 -471.166128 -899.845492
1357.580996 -471.244489 -902.629277
1364.416333 -473.444435 -908.776630
1363.776121 -473.523177 -911.573982
1363.135891 -473.601918 -914.371213
1362.495540 -473.680661 -917.168463
1361.855310 -473.759401 -919.965694
1361.214968 -473.838146 -922.763004
1360.574738 -473.916886 -925.560235
1359.934396 -473.995631 -928.357545
1359.294166 -474.074371 -931.154776
1358.653824 -474.153116 -933.952086
1350.571703 -472.106494 -933.251425
1349.934577 -472.184855 -936.035211
1349.297340 -472.263220 -938.819075
1348.660094 -472.341585 -941.602879
1348.022977 -472.419947 -944.386724
1347.385731 -472.498311 -947.170528
1346.748484 -472.576676 -949.954332
1353.531648 -474.783051 -956.330171
1352.891417 -474.861791 -959.127402
1352.251085 -474.940537 -961.924772
1344.199759 -472.890129 -961.089631
1343.562522 -472.968494 -963.873495
1342.925275 -473.046859 -966.657299
1342.288159 -473.125221 -969.441144
1341.650912 -473.203585 -972.224948
1341.013666 -473.281949 -975.008752
1347.769129 -475.491730 -981.505566
1347.128908 -475.570472 -984.302857
1346.488567 -475.649216 -987.100167
1345.848336 -475.727956 -989.897398
1345.207976 -475.806699 -992.694588
1344.567755 -475.885440 -995.491879
1343.927423 -475.964186 -998.289249
1343.287193 -476.042926 -1001.086480
1350.015059 -478.256137 -1007.704129
1349.371724 -478.335257 -1010.514806
1340.085818 -476.436636 -1015.072793
1339.445588 -476.515376 -1017.870024
1346.154967 -478.730861 -1024.568450
1345.511632 -478.809981 -1027.379127
1344.868176 -478.889103 -1030.189822
1344.224841 -478.968222 -1033.000499
1343.581507 -479.047342 -1035.811176
1342.938172 -479.126461 -1038.621852
1333.683070 -477.224056 -1043.045419
1333.042737 -477.302801 -1045.842790
1332.402507 -477.381542 -1048.640021
1331.762156 -477.460285 -1051.437270
1331.121926 -477.539025 -1054.234501
1330.481575 -477.617769 -1057.031751
1329.841363 -477.696511 -1059.829103
1329.201012 -477.775255 -1062.626352
1328.560782 -477.853995 -1065.423583
1325.999638 -478.168965 -1076.612665
1325.359408 -478.247705 -1079.409896
1324.719196 -478.326448 -1082.207248
1324.078845 -478.405191 -1085.004498
1330.714420 -480.629753 -1092.025390
1330.071085 -480.708873 -1094.836067
1329.427750 -480.787992 -1097.646743
1328.784313 -480.867117 -1100.457559
1328.140979 -480.946236 -1103.268236
1334.758168 -483.173067 -1110.369766
1334.111747 -483.252568 -1113.194009
1333.465307 -483.332066 -1116.018131
1332.818868 -483.411564 -1118.842254
1332.172429 -483.491063 -1121.666377
1331.525989 -483.570561 -1124.490499
1339.026637 -486.068782 -1132.232690
1338.376853 -486.148703 -1135.071901
1337.726828 -486.228630 -1137.911149
1487.060418 -413.131387 194.006248
1486.468556 -413.204173 191.420614
1485.876813 -413.276955 188.834998
1485.284941 -413.349739 186.249424
1484.693190 -413.422520 183.663869
1484.101318 -413.495304 181.078295
1483.509566 -413.568085 178.492740
1482.917694 -413.640869 175.907166
1482.325822 -413.713654 173.321592
1481.734079 -413.786436 170.735984
1481.142208 -413.859220 168.150403
1480.550347 -413.932005 165.564761
1479.958594 -414.004786 162.979214
1479.366723 -414.077571 160.393632
1478.774850 -414.150355 157.808066
1478.183099 -414.223136 155.222511
1477.591236 -414.295921 152.636877
1476.999364 -414.368705 150.051303
1476.407612 -414.441486 147.465748
1475.815861 -414.514267 144.880192
1475.223989 -414.587051 142.294619
1474.632126 -414.659837 139.708984
1466.467707 -412.991272 135.550267
1465.878588 -413.063724 132.976418
1480.423690 -416.620201 133.501856
1479.829194 -416.693315 130.904516
1510.964040 -426.227422 109.376419
1502.823874 -424.555879 105.323449
1494.689068 -422.883703 101.294091
1494.086450 -422.957811 98.661475
1485.959653 -421.284615 94.667313
1485.359780 -421.358390 92.046482
1484.759917 -421.432166 89.425592
1484.160044 -421.505941 86.804761
1483.560180 -421.579717 84.183870
1490.470877 -423.402456 82.865741
1489.868259 -423.476564 80.233125
1489.265651 -423.550673 77.600450
1488.663034 -423.624781 74.967834
1488.060537 -423.698886 72.335237
1487.457920 -423.772993 69.702622
1486.855303 -423.847101 67.070006
1486.252695 -423.921210 64.437331
1485.650078 -423.995318 61.804715
1485.047581 -424.069423 59.172118
1484.444964 -424.143531 56.539503
1483.842346 -424.217639 53.906887
1483.239729 -424.291747 51.274272
1482.637112 -424.365854 48.641656
1489.507580 -426.193526 47.147085
1488.902228 -426.267968 44.502624
1488.296987 -426.342405 41.858242
1487.691746 -426.416843 39.213861
1487.086375 -426.491282 36.569521
1443.027061 -440.309408 -254.949550
1442.413348 -440.384887 -257.630928
1441.799625 -440.460365 -260.312246
1441.185907 -440.535843 -262.993594
1440.572064 -440.611324 -265.674931
1439.958350 -440.686803 -268.356310
1446.494619 -442.555604 -271.310854
1445.878152 -442.631414 -274.003956
1445.261685 -442.707225 -276.697059
1444.645217 -442.783036 -279.390162
1444.028876 -442.858844 -282.083277
1443.412409 -442.934655 -284.776380
1442.795942 -443.010465 -287.469482
1442.179595 -443.086273 -290.162567
1441.563128 -443.162083 -292.855670
1440.946661 -443.237894 -295.548772
1440.330198 -443.313705 -298.241906
1439.713731 -443.389516 -300.935008
1439.097390 -443.465324 -303.628123
1438.480923 -443.541135 -306.321226
1437.864455 -443.616946 -309.014329
1437.248109 -443.692753 -311.707413
1436.631642 -443.768564 -314.400516
1436.015175 -443.844374 -317.093619
1435.398708 -443.920185 -319.786722
1434.782241 -443.995996 -322.479824
1434.165899 -444.071804 -325.172939
1433.549432 -444.147615 -327.866042
1432.932965 -444.223425 -330.559145
1432.316502 -444.299237 -333.252278
1431.700156 -444.375044 -335.945362
1431.083689 -444.450855 -338.638465
1430.467222 -444.526665 -341.331568
1429.850755 -444.602476 -344.024671
1429.234408 -444.678284 -346.717755
1428.617941 -444.754094 -349.410858
1428.001474 -444.829905 -352.103961
1427.385012 -444.905716 -354.797094
1426.768665 -444.981524 -357.490178
1434.222090 -447.119300 -360.939060
1433.602518 -447.195490 -363.645608
1432.983067 -447.271677 -366.352138
1432.363495 -447.347867 -369.058687
1431.744049 -447.424054 -371.765247
1431.124477 -447.500244 -374.471796
1449.254222 -454.052102 -398.799316
1415.056292 -446.421916 -408.659179
1414.439945 -446.497724 -411.352263
1413.823483 -446.573535 -414.045396
1413.207016 -446.649346 -416.738499
1386.199709 -458.752186 -638.262382
1385.574409 -458.829085 -640.994143
1384.949109 -458.905983 -643.725903
1376.573909 -456.881567 -644.304061
1375.951714 -456.958086 -647.022376
1383.073321 -459.136674 -651.921106
1382.448021 -459.213573 -654.652867
1381.822722 -459.290471 -657.384628
1381.197422 -459.367370 -660.116388
1380.572113 -459.444267 -662.848089
1379.946934 -459.521163 -665.579831
1379.321634 -459.598061 -668.311591
1386.418406 -461.779713 -673.317888
1385.790122 -461.856987 -676.063075
1385.161718 -461.934265 -678.808282
1384.533313 -462.011542 -681.553488
1383.905020 -462.088816 -684.298616
1383.276616 -462.166093 -687.043822
1382.648332 -462.243368 -689.789010
1382.019928 -462.320646 -692.534217
1381.391635 -462.397919 -695.279344
1387.495912 -464.319802 -700.120614
1386.864884 -464.397409 -702.877587
1386.233847 -464.475016 -705.634499
1393.288119 -466.661913 -710.827282
1392.653977 -466.739898 -713.597640
1392.019845 -466.817884 -716.368059
1391.385703 -466.895869 -719.138417
1390.751570 -466.973856 -721.908835
1390.117428 -467.051841 -724.679193
1389.483416 -467.129824 -727.449593
1388.849274 -467.207809 -730.219951
1380.554437 -465.173480 -730.447030
1379.923400 -465.251086 -733.203942
1379.292251 -465.328696 -735.960933
1378.661223 -465.406303 -738.717906
1378.030186 -465.483909 -741.474818
1377.399148 -465.561515 -744.231731
1376.768120 -465.639123 -746.988703
1376.137092 -465.716730 -749.745676
1375.506055 -465.794336 -752.502588
1374.874897 -465.871945 -755.259519
1374.243869 -465.949553 -758.016492
1373.612841 -466.027160 -760.773464
1380.605616 -468.221622 -766.235010
1379.971474 -468.299607 -769.005368
1379.337341 -468.377594 -771.775786
1378.703200 -468.455579 -774.546144
1378.069067 -468.533565 -777.316563
1377.434925 -468.611550 -780.086921
1376.800913 -468.689534 -782.857320
1376.166771 -468.767519 -785.627679
1375.532639 -468.845505 -788.398097
1374.898497 -468.923490 -791.168455
1374.264364 -469.001477 -793.938873
1373.630222 -469.079462 -796.709231
1372.996090 -469.157448 -799.479650
1372.361948 -469.235433 -802.250008
1371.727815 -469.313420 -805.020426
1371.093673 -469.391405 -807.790784
1370.459532 -469.469390 -810.561143
1369.825520 -469.547373 -813.331542
1369.191387 -469.625360 -816.101961
1368.557245 -469.703345 -818.872319
1367.923113 -469.781331 -821.642737
1374.848191 -471.984118 -827.399997
1374.210945 -472.062482 -830.183801
1373.573698 -472.140847 -832.967605
1372.936582 -472.219209 -835.751450
1372.299335 -472.297573 -838.535254
1371.662098 -472.375939 -841.319118
1371.024972 -472.454300 -844.102904
1370.387735 -472.532665 -846.886768
1362.215994 -470.483200 -846.576183
1361.581861 -470.561186 -849.346601
1368.476126 -472.767756 -855.238221
1367.838889 -472.846122 -858.022085
1367.201773 -472.924484 -860.805931
1366.564526 -473.002848 -863.589735
1365.927280 -473.081213 -866.373538
1365.290154 -473.159574 -869.157324
1364.652917 -473.237939 -871.941188
1364.015680 -473.316305 -874.725052
1363.378554 -473.394666 -877.508837
1362.741307 -473.473030 -880.292641
1362.104070 -473.551396 -883.076505
1361.466954 -473.629758 -885.860351
1360.829707 -473.708122 -888.644155
1360.192461 -473.786487 -891.427959
1359.555345 -473.864849 -894.211804
1358.918107 -473.943214 -896.995668
1358.280861 -474.021579 -899.779472
1357.643735 -474.099940 -902.563258
1357.006498 -474.178305 -905.347122
1363.839164 -476.392415 -911.507644
1363.198933 -476.471156 -914.304875
1362.558582 -476.549899 -917.102125
1361.918352 -476.628639 -919.899356
1361.278010 -476.707384 -922.696666
1360.637780 -476.786124 -925.493897
1359.997438 -476.864869 -928.291207
1359.357208 -476.943609 -931.088438
1358.716866 -477.022353 -933.885748
1358.076636 -477.101094 -936.682979
1357.436415 -477.179835 -939.480270
1356.796064 -477.258579 -942.277520
1356.155843 -477.337320 -945.074811
1348.085717 -475.275398 -944.320705
1347.448470 -475.353762 -947.104509
1354.234920 -477.573548 -953.466602
1353.594690 -477.652288 -956.263833
1345.536870 -475.588854 -955.456022
1344.899624 -475.667219 -958.239826
1351.673897 -477.888515 -964.655665
1351.033546 -477.967258 -967.452915
1342.988015 -475.902310 -966.591280
1342.350898 -475.980672 -969.375125
1341.713652 -476.059036 -972.158929
1341.076405 -476.137400 -974.942733
1347.832172 -478.360968 -981.439228
1347.191951 -478.439709 -984.236519
1346.551609 -478.518454 -987.033829
1345.911379 -478.597194 -989.831060
1345.271018 -478.675936 -992.628250
1344.630797 -478.754678 -995.425541
1351.365074 -480.980923 -1002.016118
1350.721739 -481.060043 -1004.826795
1350.078404 -481.139162 -1007.637472
1349.435070 -481.218282 -1010.448149
1340.148861 -479.305874 -1015.006455
1339.508630 -479.384614 -1017.803686
1338.868279 -479.463357 -1020.600936
1338.227947 -479.542103 -1023.398306
1337.587717 -479.620843 -1026.195537
1336.947486 -479.699584 -1028.992768
1343.001517 -482.009486 -1038.555196
1326.420814 -477.939768 -1038.970797
1325.783568 -478.018133 -1041.754601
1332.465549 -480.250780 -1048.573683
1331.825198 -480.329523 -1051.370932
1323.871968 -478.253225 -1050.106114
1323.234722 -478.331589 -1052.889918
1322.597596 -478.409950 -1055.673703
1321.960349 -478.488314 -1058.457507
1328.623824 -480.723233 -1065.357245
1327.983613 -480.801976 -1068.154597
1334.637858 -483.038054 -1075.094412
1326.703031 -480.959459 -1073.749078
1326.062680 -481.038203 -1076.546327
1325.422450 -481.116943 -1079.343558
1324.782238 -481.195686 -1082.140910
1324.141887 -481.274429 -1084.938160
1323.501657 -481.353169 -1087.735391
1330.134430 -483.591897 -1094.769410
1329.491095 -483.671017 -1097.580086
1328.847659 -483.750142 -1100.390903
1328.204324 -483.829261 -1103.201579
1327.560989 -483.908380 -1106.012256
1334.175394 -486.149349 -1113.127034
1333.528955 -486.228847 -1115.951157
1332.882515 -486.308346 -1118.775279
1332.236076 -486.387844 -1121.599402
1331.589637 -486.467343 -1124.423524
1339.090625 -488.981089 -1132.165356
1487.118689 -415.783481 194.067566
1486.526827 -415.856266 191.481931
1485.935085 -415.929049 188.896316
1485.343213 -416.001833 186.310742
1484.751461 -416.074614 183.725187
1484.159589 -416.147398 181.139613
1483.567838 -416.220179 178.554058
1482.975966 -416.292963 175.968484
1482.384094 -416.365747 173.382910
1481.792350 -416.438529 170.797302
1481.200480 -416.511314 168.211721
1480.608618 -416.584099 165.626079
1480.016865 -416.656880 163.040531
1479.424994 -416.729664 160.454950
1478.833121 -416.802448 157.869384
1478.241370 -416.875229 155.283828
1477.649507 -416.948015 152.698194
1477.057635 -417.020799 150.112620
1476.465884 -417.093580 147.527065
1475.874132 -417.166361 144.941510
1475.282260 -417.239145 142.355936
1467.114832 -415.558865 138.185155
1466.525713 -415.631317 135.611306
1511.023902 -428.951897 109.439410
1502.883471 -427.268306 105.386162
1494.748399 -425.584051 101.356524
1486.618714 -423.899136 97.350317
1486.018720 -423.972914 94.729468
1485.418847 -424.046689 92.108637
1484.818983 -424.120466 89.487746
1484.219110 -424.194241 86.866916
1489.927591 -426.176912 80.295559
1489.324983 -426.251021 77.662883
1488.722366 -426.325129 75.030267
1488.119869 -426.399234 72.397671
1487.517252 -426.473341 69.765055
1486.914634 -426.547449 67.132440
1486.312026 -426.621558 64.499764
1485.709409 -426.695666 61.867148
1485.106912 -426.769771 59.234552
1484.504295 -426.843879 56.601936
1483.901678 -426.917987 53.969321
1483.299060 -426.992095 51.336705
1482.696443 -427.066202 48.704090
1489.567177 -428.905953 47.209797
1488.961825 -428.980395 44.565337
1488.356584 -429.054832 41.920955
1487.751343 -429.129270 39.276573
1487.145972 -429.203709 36.632233
1435.921247 -441.256331 -254.683618
1442.473777 -443.135197 -257.567340
1441.860054 -443.210675 -260.248658
1441.246336 -443.286154 -262.930006
1440.632493 -443.361635 -265.611343
1440.018779 -443.437114 -268.292721
1439.405057 -443.512592 -270.974039
1438.791338 -443.588070 -273.655388
1445.322379 -445.469614 -276.633192
1444.705912 -445.545425 -279.326294
1444.089570 -445.621233 -282.019409
1443.473103 -445.697044 -284.712512
1442.856636 -445.772854 -287.405615
1442.240290 -445.848662 -290.098699
1441.623823 -445.924473 -292.791802
1441.007356 -446.000283 -295.484905
1440.390893 -446.076095 -298.178038
1439.774426 -446.151905 -300.871141
1439.158084 -446.227713 -303.564255
1438.541617 -446.303524 -306.257358
1437.925150 -446.379335 -308.950461
1437.308804 -446.455142 -311.643545
1436.692337 -446.530953 -314.336648
1436.075869 -446.606764 -317.029751
1435.459402 -446.682574 -319.722854
1434.842935 -446.758385 -322.415957
1434.226594 -446.834193 -325.109071
1433.610126 -446.910004 -327.802174
1432.993659 -446.985814 -330.495277
1432.377197 -447.061626 -333.188410
1431.760850 -447.137433 -335.881494
1431.144383 -447.213244 -338.574597
1430.527916 -447.289055 -341.267700
1429.911449 -447.364865 -343.960803
1429.295103 -447.440673 -346.653887
1428.678636 -447.516484 -349.346990
1428.062169 -447.592294 -352.040093
1427.445706 -447.668105 -354.733226
1426.829360 -447.743913 -357.426310
1434.283087 -449.895477 -360.874873
1433.663516 -449.971666 -363.581422
1433.044065 -450.047853 -366.287952
1432.424493 -450.124043 -368.994501
1431.805047 -450.200230 -371.701061
1431.185475 -450.276420 -374.407609
1437.611201 -452.170889 -377.845714
1436.989005 -452.247409 -380.564029
1436.366810 -452.323928 -383.282344
1435.744615 -452.400448 -386.000658
1435.122415 -452.476967 -388.718943
1449.316090 -456.867900 -398.734214
1439.410114 -455.017921 -405.999278
1446.802584 -457.177006 -409.714961
1446.174300 -457.254281 -412.460148
1445.545896 -457.331558 -415.205355
1413.884178 -449.335925 -413.981529
1413.267710 -449.411735 -416.674632
1412.651243 -449.487546 -419.367735
1412.034897 -449.563353 -422.060819
1411.418430 -449.639164 -424.753922
1386.261275 -461.554228 -638.197598
1385.635975 -461.631126 -640.929358
1385.010675 -461.708025 -643.661119
1376.635171 -459.669791 -644.239596
1376.012976 -459.746310 -646.957911
1383.134887 -461.938716 -651.856322
1382.509587 -462.015615 -654.588083
1381.884288 -462.092513 -657.319843
1381.258988 -462.169412 -660.051604
1380.633679 -462.246309 -662.783304
1380.008499 -462.323205 -665.515046
1379.383200 -462.400103 -668.246807
1386.480274 -464.595511 -673.252785
1385.851990 -464.672786 -675.997973
1385.223586 -464.750063 -678.743179
1384.595182 -464.827341 -681.488386
1383.966888 -464.904614 -684.233513
1383.338484 -464.981892 -686.978720
1382.710200 -465.059166 -689.723908
1382.081796 -465.136444 -692.469114
1381.453503 -465.213717 -695.214241
1380.825099 -465.290995 -697.959448
1393.350556 -469.503577 -710.761582
1392.716414 -469.581562 -713.531940
1392.082281 -469.659548 -716.302358
1391.448139 -469.737533 -719.072716
1390.814007 -469.815520 -721.843135
1381.247598 -467.923749 -727.624675
1380.616570 -468.001357 -730.381648
1379.985533 -468.078963 -733.138560
1379.354384 -468.156573 -735.895551
1378.723356 -468.234180 -738.652524
1378.092319 -468.311786 -741.409436
1377.461282 -468.389393 -744.166349
1376.830254 -468.467000 -746.923321
1376.199226 -468.544607 -749.680294
1375.568188 -468.622213 -752.437206
1374.937030 -468.699822 -755.194137
1374.306002 -468.777430 -757.951110
1373.674974 -468.855037 -760.708082
1380.668052 -471.063286 -766.169309
1380.033910 -471.141271 -768.939667
1379.399778 -471.219258 -771.710086
1378.765636 -471.297243 -774.480444
1378.131503 -471.375229 -777.250862
1377.497362 -471.453214 -780.021220
1376.863350 -471.531198 -782.791620
1376.229208 -471.609183 -785.561978
1375.595075 -471.687169 -788.332396
1374.960933 -471.765154 -791.102754
1374.326801 -471.843141 -793.873173
1373.692659 -471.921126 -796.643531
1373.058526 -471.999112 -799.413949
1372.424384 -472.077098 -802.184307
1371.790252 -472.155084 -804.954726
1371.156110 -472.233069 -807.725084
1370.521968 -472.311054 -810.495442
1369.887956 -472.389038 -813.265842
1369.253824 -472.467024 -816.036260
1368.619682 -472.545009 -818.806618
1367.985549 -472.622995 -821.577037
1374.910930 -474.839538 -827.333978
1374.273683 -474.917903 -830.117782
1373.636437 -474.996267 -832.901586
1372.999320 -475.074629 -835.685432
1372.362074 -475.152994 -838.469235
1371.724837 -475.231359 -841.253100
1371.087711 -475.309720 -844.036885
1370.450474 -475.388086 -846.820749
1362.278430 -473.324864 -846.510482
1361.644297 -473.402850 -849.280900
1368.538865 -475.623177 -855.172202
1367.901628 -475.701542 -857.956067
1367.264511 -475.779905 -860.739912
1366.627265 -475.858269 -863.523716
1365.990018 -475.936633 -866.307520
1365.352893 -476.014994 -869.091305
1364.715655 -476.093360 -871.875169
1364.078418 -476.171725 -874.659033
1363.441293 -476.250086 -877.442819
1362.804046 -476.328451 -880.226623
1362.166809 -476.406816 -883.010487
1361.529693 -476.485178 -885.794332
1360.892446 -476.563543 -888.578136
1360.255200 -476.641907 -891.361940
1359.618083 -476.720269 -894.145786
1358.980846 -476.798635 -896.929650
1358.343600 -476.876999 -899.713454
1357.706474 -476.955360 -902.497239
1357.069237 -477.033726 -905.281103
1356.432000 -477.112091 -908.064967
1363.261976 -479.340394 -914.238537
1362.621625 -479.419137 -917.035787
1361.981394 -479.497877 -919.833018
1361.341053 -479.576622 -922.630328
1353.246028 -477.503909 -921.984070
1352.608781 -477.582273 -924.767874
1359.420250 -479.812847 -931.022100
1358.779909 -479.891591 -933.819410
1358.139678 -479.970332 -936.616641
1357.499457 -480.049073 -939.413932
1356.859106 -480.127817 -942.211182
1356.218885 -480.206558 -945.008473
1355.578535 -480.285301 -947.805723
1354.938314 -480.364043 -950.603014
1354.297963 -480.442786 -953.400264
1353.657732 -480.521526 -956.197495
1345.599609 -478.444275 -955.390004
1344.962363 -478.522639 -958.173808
1351.736939 -480.757753 -964.589327
1351.096588 -480.836496 -967.386577
1343.050753 -478.757730 -966.525261
1342.413637 -478.836092 -969.309107
1349.175795 -481.072722 -975.778409
1348.535565 -481.151463 -978.575640
1347.895214 -481.230206 -981.372890
1347.254993 -481.308947 -984.170181
1346.614651 -481.387692 -986.967491
1345.974421 -481.466432 -989.764722
1352.715200 -483.705675 -996.328030
1352.071874 -483.784795 -999.138767
1351.428419 -483.863918 -1001.949462
1350.785084 -483.943037 -1004.760139
1333.492725 -479.933187 -1008.282648
1332.855479 -480.011551 -1011.066452
1339.571673 -482.253852 -1017.737348
1338.931322 -482.332595 -1020.534598
1338.290989 -482.411341 -1023.331968
1337.650759 -482.490081 -1026.129199
1337.010529 -482.568822 -1028.926430
1336.370196 -482.647567 -1031.723800
1327.120679 -480.716828 -1036.120993
1326.483553 -480.795189 -1038.904778
1325.846307 -480.873553 -1041.688582
1325.209060 -480.951917 -1044.472386
1324.571953 -481.030281 -1047.256292
1323.934707 -481.108645 -1050.040095
1323.297460 -481.187009 -1052.823899
1322.660334 -481.265371 -1055.607685
1322.023088 -481.343735 -1058.391488
1328.686867 -483.592471 -1065.290907
1328.046655 -483.671214 -1068.088259
1327.406304 -483.749957 -1070.885509
1326.766074 -483.828697 -1073.682740
1326.125723 -483.907441 -1076.479989
1325.485492 -483.986181 -1079.277220
1324.845281 -484.064923 -1082.074572
1324.204930 -484.143667 -1084.871822
1323.564699 -484.222407 -1087.669053
1330.197775 -486.474892 -1094.702753
1329.554440 -486.554011 -1097.513430
1328.911003 -486.633136 -1100.324246
1328.267668 -486.712255 -1103.134923
1327.624333 -486.791375 -1105.945600
1334.239042 -489.046161 -1113.060058
1333.592603 -489.125659 -1115.884181
1332.946164 -489.205158 -1118.708303
1332.299724 -489.284656 -1121.532426
1331.653285 -489.364154 -1124.356549
1331.006864 -489.443655 -1127.180792
1330.360406 -489.523151 -1130.004794
1329.713985 -489.602652 -1132.829037
1329.067546 -489.682151 -1135.653160
1328.421106 -489.761649 -1138.477282
1487.176961 -418.435575 194.128883
1486.585098 -418.508360 191.543249
1485.993356 -418.581142 188.957634
1485.401484 -418.653926 186.372060
1484.809732 -418.726708 183.786504
1484.217860 -418.799492 181.200931
1483.626109 -418.872273 178.615375
1475.420681 -417.184579 174.279689
1474.831564 -417.257032 171.705832
1481.850622 -419.090623 170.858620
1481.258751 -419.163407 168.273038
1480.666889 -419.236193 165.687397
1480.075137 -419.308974 163.101849
1479.483266 -419.381758 160.516268
1478.891393 -419.454542 157.930701
1478.299641 -419.527323 155.345146
1477.707778 -419.600108 152.759512
1477.115906 -419.672893 150.173938
1476.524155 -419.745674 147.588383
1475.932403 -419.818455 145.002828
1475.340531 -419.891239 142.417254
1467.172838 -418.198910 138.246194
1466.583720 -418.271363 135.672345
1465.994601 -418.343815 133.098496
1511.691638 -431.601606 112.158489
1511.083764 -431.676372 109.502401
1502.943067 -429.980702 105.448873
1494.807731 -428.284399 101.418957
1486.677780 -426.587405 97.412471
1486.077786 -426.661183 94.791622
1485.477913 -426.734958 92.170791
1484.878049 -426.808735 89.549900
1484.278176 -426.882510 86.929070
1489.986922 -428.877260 80.357992
1489.384314 -428.951369 77.725316
1488.781697 -429.025477 75.092701
1488.179200 -429.099582 72.460104
1487.576583 -429.173689 69.827488
1486.973966 -429.247797 67.194873
1486.371358 -429.321906 64.562197
1485.768740 -429.396014 61.929582
1485.166244 -429.470119 59.296985
1484.563626 -429.544227 56.664369
1483.961009 -429.618335 54.031754
1483.358392 -429.692443 51.399138
1482.755775 -429.766550 48.766523
1489.626773 -431.618349 47.272509
1489.021421 -431.692791 44.628049
1488.416180 -431.767228 41.983667
1487.810939 -431.841666 39.339285
1487.205568 -431.916105 36.694945
1443.147921 -445.810059 -254.822372
1442.534207 -445.885538 -257.503751
1441.920484 -445.961016 -260.185069
1441.306766 -446.036495 -262.866417
1440.692923 -446.111976 -265.547754
1440.079209 -446.187455 -268.229132
1439.465487 -446.262933 -270.910450
1438.851768 -446.338411 -273.591798
1445.383074 -448.232003 -276.569324
1444.766607 -448.307814 -279.262427
1444.150265 -448.383622 -281.955541
1443.533798 -448.459433 -284.648644
1442.917331 -448.535244 -287.341747
1442.300984 -448.611051 -290.034831
1441.684517 -448.686862 -292.727934
1441.068050 -448.762672 -295.421037
1440.451588 -448.838484 -298.114170
1439.835121 -448.914294 -300.807273
1439.218779 -448.990103 -303.500387
1438.602312 -449.065913 -306.193490
1437.985845 -449.141724 -308.886593
1437.369498 -449.217531 -311.579677
1436.753031 -449.293342 -314.272780
1436.136564 -449.369153 -316.965883
1435.520097 -449.444963 -319.658986
1434.903630 -449.520774 -322.352089
1434.287288 -449.596582 -325.045203
1433.670821 -449.672393 -327.738306
1433.054354 -449.748204 -330.431409
1432.437892 -449.824015 -333.124542
1431.821545 -449.899822 -335.817627
1431.205078 -449.975633 -338.510729
1430.588611 -450.051444 -341.203832
1429.972144 -450.127254 -343.896935
1429.355797 -450.203062 -346.590020
1428.739330 -450.278873 -349.283122
1428.122863 -450.354683 -351.976225
1427.506401 -450.430495 -354.669358
1426.890054 -450.506302 -357.362443
1434.344085 -452.671653 -360.810687
1433.724513 -452.747842 -363.517235
1433.105062 -452.824029 -366.223765
1432.485490 -452.900219 -368.930314
1438.916863 -454.806107 -372.344679
1438.294664 -454.882626 -375.062963
1437.672464 -454.959144 -377.781248
1437.050268 -455.035664 -380.499563
1436.428073 -455.112183 -383.217878
1435.805878 -455.188703 -385.936193
1435.183678 -455.265222 -388.654477
1442.598067 -457.435444 -392.275770
1449.377959 -459.683729 -398.669111
1448.749554 -459.761007 -401.414317
1448.121150 -459.838284 -404.159523
1447.492861 -459.915558 -406.904681
1446.864452 -459.992835 -409.649857
1446.236169 -460.070110 -412.395045
1422.573324 -454.119232 -412.235035
1413.944872 -452.098314 -413.917661
1413.328405 -452.174124 -416.610764
1412.711938 -452.249935 -419.303867
1412.095592 -452.325743 -421.996951
1411.479124 -452.401553 -424.690054
1385.697540 -464.433138 -640.864575
1385.072241 -464.510036 -643.596335
1376.696434 -462.458046 -644.175130
1376.074239 -462.534565 -646.893445
1383.196452 -464.740728 -651.791538
1382.571153 -464.817626 -654.523299
1381.945853 -464.894525 -657.255059
1381.320553 -464.971423 -659.986820
1380.695244 -465.048321 -662.718520
1380.070065 -465.125216 -665.450262
1379.444765 -465.202114 -668.182023
1386.542143 -467.411340 -673.187682
1385.913859 -467.488614 -675.932870
1385.285455 -467.565892 -678.678076
1384.657050 -467.643170 -681.423283
1384.028757 -467.720443 -684.168410
1383.400353 -467.797721 -686.913616
1382.772069 -467.874995 -689.658804
1382.143665 -467.952273 -692.404011
1381.515372 -468.029546 -695.149138
1380.886967 -468.106824 -697.894345
1393.412992 -472.345241 -710.695881
1392.778850 -472.423226 -713.466239
1392.144718 -472.501212 -716.236657
1391.510576 -472.579197 -719.007016
1390.876443 -472.657184 -721.777434
1381.940769 -470.674020 -724.802381
1381.309732 -470.751626 -727.559294
1380.678704 -470.829234 -730.316266
1380.047667 -470.906840 -733.073178
1379.416518 -470.984450 -735.830170
1378.785490 -471.062058 -738.587142
1378.154453 -471.139664 -741.344055
1385.169324 -473.359052 -746.710879
1384.535191 -473.437039 -749.481298
1383.901050 -473.515024 -752.251656
1375.630322 -471.450090 -752.371824
1374.999164 -471.527700 -755.128755
1374.368136 -471.605307 -757.885728
1373.737108 -471.682914 -760.642700
1380.730489 -473.904950 -766.103608
1380.096347 -473.982935 -768.873967
1379.462214 -474.060922 -771.644385
1378.828072 -474.138907 -774.414743
1378.193940 -474.216893 -777.185161
1377.559798 -474.294878 -779.955520
1376.925786 -474.372862 -782.725919
1376.291644 -474.450847 -785.496277
1375.657512 -474.528833 -788.266696
1375.023370 -474.606818 -791.037054
1374.389237 -474.684805 -793.807472
1373.755095 -474.762790 -796.577830
1373.120963 -474.840776 -799.348249
1372.486821 -474.918762 -802.118607
1371.852688 -474.996748 -804.889025
1371.218546 -475.074733 -807.659383
1370.584404 -475.152718 -810.429741
1369.950393 -475.230702 -813.200141
1369.316260 -475.308688 -815.970560
1368.682118 -475.386673 -818.740918
1368.047986 -475.464660 -821.511336
1374.973669 -477.694989 -827.267959
1374.336423 -477.773354 -830.051763
1373.699176 -477.851718 -832.835567
1373.062060 -477.930080 -835.619412
1372.424813 -478.008445 -838.403216
1371.787576 -478.086810 -841.187080
1371.150451 -478.165171 -843.970866
1370.513213 -478.243537 -846.754730
1369.875967 -478.321901 -849.538534
1369.238851 -478.400263 -852.322379
1361.072592 -476.322499 -851.985558
1360.438459 -476.400486 -854.755976
1367.327251 -478.635356 -860.673893
1359.170185 -476.556457 -860.296753
1358.536043 -476.634443 -863.067111
1357.901901 -476.712428 -865.837469
1364.778395 -478.948811 -871.809150
1364.141158 -479.027176 -874.593014
1363.504032 -479.105537 -877.376799
1362.866786 -479.183902 -880.160603
1362.229548 -479.262267 -882.944467
1361.592432 -479.340629 -885.728313
1360.955186 -479.418994 -888.512117
1360.317939 -479.497358 -891.295921
1359.680823 -479.575720 -894.079766
1359.043586 -479.654086 -896.863630
1358.406339 -479.732450 -899.647434
1357.769213 -479.810811 -902.431220
1357.131976 -479.889177 -905.215084
1356.494739 -479.967542 -907.998948
1363.325018 -482.209632 -914.172199
1362.684667 -482.288375 -916.969449
1362.044437 -482.367115 -919.766680
1361.404095 -482.445860 -922.563990
1353.308767 -480.359360 -921.918051
1352.671521 -480.437724 -924.701854
1359.483293 -482.682085 -930.955762
1358.842951 -482.760829 -933.753072
1358.202721 -482.839570 -936.550303
1357.562500 -482.918311 -939.347594
1356.922149 -482.997054 -942.144844
1356.281928 -483.075796 -944.942135
1355.641577 -483.154539 -947.739385
1355.001356 -483.233281 -950.536676
1354.361005 -483.312024 -953.333926
1353.720775 -483.390764 -956.131157
1345.662348 -481.299726 -955.323984
1345.025102 -481.378090 -958.107788
1351.799982 -483.626991 -964.522989
1351.159631 -483.705734 -967.320239
1350.519400 -483.784474 -970.117470
1342.476376 -481.691543 -969.243087
1341.839130 -481.769908 -972.026891
1348.598607 -484.020701 -978.509302
1347.958256 -484.099444 -981.306552
1347.318035 -484.178185 -984.103843
1346.677694 -484.256930 -986.901153
1346.037463 -484.335670 -989.698384
1352.778545 -486.588700 -996.261373
1344.756882 -484.493154 -995.292865
1334.829837 -482.631913 -1002.649040
1334.192711 -482.710274 -1005.432825
1333.555465 -482.788638 -1008.216629
1332.918218 -482.867002 -1011.000433
1332.281111 -482.945366 -1013.784338
1331.643865 -483.023730 -1016.568142
1338.354032 -485.280579 -1023.265630
1337.713801 -485.359319 -1026.062861
1337.073571 -485.438060 -1028.860092
1336.433239 -485.516805 -1031.657462
1343.128207 -487.775505 -1038.421883
1335.152657 -485.674289 -1037.251943
1327.183418 -483.572279 -1036.054973
1326.546292 -483.650640 -1038.838759
1325.909046 -483.729004 -1041.622563
1325.271800 -483.807368 -1044.406366
1324.634693 -483.885732 -1047.190272
1323.997446 -483.964096 -1049.974076
1323.360200 -484.042460 -1052.757880
1322.723074 -484.120822 -1055.541665
1322.085827 -484.199186 -1058.325469
1328.749909 -486.461709 -1065.224569
1328.109697 -486.540451 -1068.021921
1327.469346 -486.619195 -1070.819170
1326.829116 -486.697935 -1073.616401
1326.188765 -486.776678 -1076.413651
1325.548535 -486.855419 -1079.210882
1324.908323 -486.934161 -1082.008234
1324.267972 -487.012905 -1084.805483
1323.627742 -487.091645 -1087.602715
1322.987409 -487.170391 -1090.400085
1322.347160 -487.249129 -1093.197195
1321.706828 -487.327874 -1095.994565
1328.331014 -489.595280 -1103.068266
1327.687679 -489.674400 -1105.878943
1334.302691 -491.942972 -1112.993083
1333.656251 -492.022471 -1115.817205
1333.009812 -492.101969 -1118.641328
1332.363372 -492.181468 -1121.465450
1331.716933 -492.260966 -1124.289573
1331.070512 -492.340467 -1127.113816
1330.424054 -492.419963 -1129.937818
1329.777633 -492.499464 -1132.762062
1329.131194 -492.578962 -1135.586184
1327.838334 -492.737962 -1141.234550
1487.235233 -421.087699 194.190202
1486.643370 -421.160484 191.604567
1486.051628 -421.233267 189.018952
1485.459756 -421.306051 186.433378
1484.868004 -421.378832 183.847823
1484.276132 -421.451616 181.262249
1483.684381 -421.524397 178.676694
1475.478687 -419.824625 174.340728
1474.889570 -419.897077 171.766872
1481.908894 -421.742747 170.919938
1481.317023 -421.815532 168.334357
1480.725161 -421.888317 165.748715
1480.133409 -421.961098 163.163167
1479.541538 -422.033882 160.577586
1478.949664 -422.106666 157.992020
1478.357913 -422.179447 155.406464
1477.766050 -422.252233 152.820830
1477.174178 -422.325017 150.235256
1476.582427 -422.397798 147.649701
1475.990675 -422.470579 145.064146
1475.398803 -422.543363 142.478572
1474.806941 -422.616148 139.892938
1474.215078 -422.688934 137.307304
1511.143625 -434.400847 109.565392
1510.535649 -434.475619 106.909166
1502.397303 -432.767569 102.867186
1494.264445 -431.058855 98.848775
1493.661828 -431.132963 96.216160
1493.059210 -431.207070 93.583544
1492.456593 -431.281178 90.950929
1476.820381 -427.786335 85.664177
1483.737380 -429.644586 84.370333
1490.648871 -431.503500 83.053041
1490.046254 -431.577608 80.420425
1489.443646 -431.651717 77.787750
1488.841028 -431.725825 75.155134
1488.238532 -431.799930 72.522537
1487.635914 -431.874037 69.889922
1487.033297 -431.948145 67.257306
1486.430689 -432.022254 64.624630
1485.828072 -432.096362 61.992015
1485.225575 -432.170467 59.359418
1484.622958 -432.244575 56.726803
1484.020341 -432.318683 54.094187
1483.417723 -432.392791 51.461572
1482.815106 -432.466898 48.828956
1482.212619 -432.541004 46.196299
1481.610001 -432.615112 43.563684
1488.475777 -434.479655 42.046379
1446.277070 -448.182975 -241.352084
1438.485828 -446.432263 -243.878659
1443.822193 -448.484889 -252.077447
1443.208350 -448.560370 -254.758784
1442.594636 -448.635849 -257.440162
1441.980914 -448.711327 -260.121480
1441.367195 -448.786805 -262.802828
1440.753352 -448.862286 -265.484165
1440.139639 -448.937765 -268.165544
1439.525916 -449.013243 -270.846862
1438.912198 -449.088721 -273.528210
1438.298475 -449.164199 -276.209528
1437.684641 -449.239682 -278.890925
1437.070918 -449.315159 -281.572243
1443.594492 -451.221792 -284.584777
1442.978025 -451.297602 -287.277880
1442.361678 -451.373410 -289.970964
1441.745211 -451.449221 -292.664067
1441.128744 -451.525031 -295.357170
1440.512282 -451.600842 -298.050303
1439.895815 -451.676653 -300.743406
1439.279473 -451.752461 -303.436520
1438.663006 -451.828272 -306.129623
1438.046539 -451.904083 -308.822726
1437.430192 -451.979890 -311.515810
1436.813725 -452.055701 -314.208913
1436.197258 -452.131512 -316.902016
1435.580791 -452.207322 -319.595119
1434.964324 -452.283133 -322.288222
1434.347982 -452.358941 -324.981336
1433.731515 -452.434752 -327.674439
1433.115048 -452.510562 -330.367542
1432.498586 -452.586374 -333.060675
1431.882239 -452.662181 -335.753760
1431.265772 -452.737992 -338.446862
1430.649305 -452.813802 -341.139965
1430.032838 -452.889613 -343.833068
1429.416491 -452.965421 -346.526153
1428.800024 -453.041231 -349.219255
1428.183557 -453.117042 -351.912358
1427.567095 -453.192853 -354.605491
1426.950748 -453.268661 -357.298576
1434.405082 -455.447829 -360.746500
1439.600321 -457.517812 -369.561899
1438.978126 -457.594331 -372.280214
1438.355926 -457.670850 -374.998498
1442.034448 -460.314350 -394.942698
1441.409148 -460.391249 -397.674458
1448.811422 -462.576805 -401.349214
1448.183018 -462.654082 -404.094421
1447.554730 -462.731356 -406.839578
1446.926321 -462.808633 -409.584755
1422.634321 -456.895408 -412.170848
1422.014754 -456.971598 -414.877427
1413.389099 -454.936483 -416.546897
1412.772632 -455.012294 -419.240000
1412.156285 -455.088101 -421.933084
1411.539818 -455.163912 -424.626187
1385.759106 -467.235149 -640.799791
1385.133806 -467.312048 -643.531551
1376.757696 -465.246270 -644.110665
1376.135501 -465.322790 -646.828980
1383.258018 -467.542739 -651.726754
1382.632718 -467.619638 -654.458515
1382.007418 -467.696536 -657.190276
1381.382118 -467.773435 -659.922036
1380.756809 -467.850332 -662.653737
1380.131630 -467.927227 -665.385479
1387.232415 -470.149861 -670.377373
1386.604011 -470.227138 -673.122579
1385.975727 -470.304413 -675.867767
1385.347323 -470.381690 -678.612974
1384.718918 -470.458968 -681.358180
1384.090625 -470.536241 -684.103307
1383.462221 -470.613519 -686.848514
1382.833937 -470.690793 -689.593702
1382.205533 -470.768071 -692.338908
1381.577240 -470.845344 -695.084036
1387.682313 -472.803434 -699.924469
1394.743702 -475.030903 -705.089405
1394.109560 -475.108888 -707.859763
1393.475428 -475.186874 -710.630181
1392.841286 -475.264859 -713.400539
1392.207153 -475.342846 -716.170958
1391.573011 -475.420831 -718.941316
1390.938879 -475.498817 -721.711734
1375.921953 -471.540832 -719.790777
1375.293660 -471.618106 -722.535905
1381.371865 -473.579504 -727.493912
1380.740837 -473.657111 -730.250884
1380.109800 -473.734717 -733.007797
1379.478651 -473.812327 -735.764788
1378.847623 -473.889935 -738.521760
1385.865902 -476.122701 -743.874821
1385.231760 -476.200686 -746.645179
1384.597627 -476.278672 -749.415598
1383.963485 -476.356657 -752.185956
1375.692455 -474.277968 -752.306443
