# .PCD v.7 - Point Cloud Data file format
VERSION .7
FIELDS x y z
SIZE 4 4 4
TYPE F F F
COUNT 1 1 1
WIDTH 1369
HEIGHT 1
POINTS 1369
DATA ascii
1484.600286 93.549064 -1605.163483
1474.390171 92.748840 -1600.526695
1464.188268 91.949639 -1595.852828
1463.448115 91.858602 -1599.086958
1462.707822 91.767564 -1602.320987
1461.967530 91.676526 -1605.555015
1763.222675 112.545996 -1623.759179
1762.367759 112.440864 -1627.493875
1761.512982 112.335733 -1631.228672
1746.640953 111.153729 -1629.049322
1745.791904 111.049306 -1632.758908
1732.668876 110.039242 -1627.415800
1731.825195 109.935482 -1631.101835
1706.497595 107.985210 -1620.879187
1705.664188 107.882723 -1624.519920
1692.583780 106.877908 -1618.990307
1691.755843 106.776089 -1622.607350
1690.927925 106.674267 -1626.224513
1678.742701 105.736412 -1621.260976
1677.919790 105.635206 -1624.856250
1677.096880 105.534001 -1628.451523
1664.931584 104.598620 -1623.400566
1664.113580 104.498025 -1626.974088
1663.295677 104.397436 -1630.547472
1615.645044 100.736957 -1610.407455
1603.539315 99.808892 -1605.095998
1602.746007 99.711330 -1608.561852
1601.952718 99.613765 -1612.027827
1590.735742 98.751856 -1607.311102
1589.946961 98.654860 -1610.756745
1589.158217 98.557860 -1614.202631
1588.369557 98.460867 -1617.648256
1587.580934 98.363869 -1621.094123
1576.391398 97.505370 -1616.256339
1565.211435 96.647989 -1611.378301
1564.431866 96.552125 -1614.783746
1542.878931 94.936661 -1601.501046
1542.108676 94.841935 -1604.866154
1541.338439 94.747206 -1608.231383
1531.059711 93.957544 -1603.892307
1530.293659 93.863333 -1607.239107
1529.527691 93.769130 -1610.585648
1528.761602 93.674924 -1613.932207
1508.149576 92.132048 -1601.015631
1507.392478 92.038928 -1604.323755
1497.151963 91.253996 -1599.816760
1496.399012 91.161399 -1603.106214
1495.646062 91.068801 -1606.395668
1485.422771 90.285962 -1601.814884
1484.674005 90.193882 -1605.085909
1464.261155 88.632371 -1595.776131
1463.521001 88.541334 -1599.010262
1462.780709 88.450296 -1602.244290
1462.040416 88.359258 -1605.478318
1461.300142 88.268218 -1608.712468
1763.306844 108.715196 -1623.670609
1762.451928 108.610064 -1627.405305
1761.597151 108.504933 -1631.140102
1745.875506 107.244341 -1632.670935
1745.026318 107.139918 -1636.380419
1731.908267 106.154659 -1631.014420
1731.064567 106.050902 -1634.700334
1706.579644 104.250903 -1620.792848
1705.746237 104.148416 -1624.433581
1692.665299 103.167728 -1618.904526
1691.837362 103.065909 -1622.521569
1691.009444 102.964087 -1626.138732
1678.823728 102.048635 -1621.175713
1678.000817 101.947430 -1624.770987
1677.177907 101.846225 -1628.366260
1676.354857 101.745019 -1631.961431
1664.194115 100.832645 -1626.889343
1663.376212 100.732056 -1630.462727
1662.558309 100.631467 -1634.036110
1626.969138 98.004149 -1614.918353
1603.617426 96.253808 -1605.013803
1602.824118 96.156245 -1608.479657
1602.030829 96.058680 -1611.945632
1590.813399 95.217444 -1607.229384
1590.024618 95.120448 -1610.675028
1589.235875 95.023448 -1614.120913
1588.447214 94.926455 -1617.566539
1577.252716 94.088059 -1612.749564
1576.468601 93.991631 -1616.175100
1565.288184 93.154930 -1611.297539
1542.954771 91.484964 -1601.421241
1542.184516 91.390237 -1604.786349
1541.414279 91.295508 -1608.151579
1531.135134 90.524826 -1603.812941
1530.369082 90.430615 -1607.159741
1529.603114 90.336412 -1610.506282
1508.224128 88.738952 -1600.937182
1507.467030 88.645832 -1604.245305
1506.709774 88.552713 -1607.553207
1496.473148 87.787260 -1603.028203
1495.720198 87.694663 -1606.317657
1485.496490 86.930772 -1601.737311
1484.747725 86.838693 -1605.008336
1464.334041 85.315088 -1595.699434
1463.593888 85.224051 -1598.933564
1462.853595 85.133013 -1602.167593
1462.113303 85.041976 -1605.401621
1461.373029 84.950935 -1608.635770
1745.109920 103.334961 -1636.292446
1744.260872 103.230538 -1640.002032
1731.147639 102.270056 -1634.612919
1730.303838 102.166293 -1638.298973
1704.994982 100.311628 -1627.987836
1704.161677 100.209146 -1631.628430
1691.090963 99.253915 -1626.052951
1678.904755 98.360859 -1621.090450
1678.081844 98.259654 -1624.685723
1677.258934 98.158449 -1628.280997
1665.092654 97.267860 -1623.231075
1664.274649 97.167265 -1626.804598
1663.456747 97.066676 -1630.377981
1662.638844 96.966087 -1633.951365
1627.048196 94.405980 -1614.835162
1603.695538 92.698715 -1604.931607
1602.902230 92.601153 -1608.397462
1602.108941 92.503588 -1611.863437
1601.315652 92.406023 -1615.329412
1600.522223 92.308457 -1618.795285
1589.313532 91.489028 -1614.039196
1588.524872 91.392036 -1617.484821
1577.329919 90.574328 -1612.668325
1576.545804 90.477900 -1616.093860
1565.364933 89.661887 -1611.216779
1543.030611 88.033273 -1601.341436
1542.260355 87.938547 -1604.706545
1541.490118 87.843818 -1608.071774
1531.210558 87.092078 -1603.733574
1530.444506 86.997867 -1607.080375
1529.678537 86.903664 -1610.426915
1509.055937 85.438967 -1597.550830
1508.298681 85.345849 -1600.858731
1507.541582 85.252729 -1604.166855
1497.300235 84.505711 -1599.660737
1496.547284 84.413114 -1602.950191
1495.794334 84.320516 -1606.239645
1485.570210 83.575583 -1601.659737
1484.821444 83.483504 -1604.930762
1465.147202 82.088846 -1592.388588
1464.406928 81.997805 -1595.622737
1463.666775 81.906768 -1598.856867
1745.193522 99.529996 -1636.204474
1731.230711 98.489226 -1634.525505
1730.386910 98.385463 -1638.211558
1718.164518 97.510413 -1633.405867
1705.077031 96.577313 -1627.901497
1704.243726 96.474832 -1631.542091
1691.172483 95.543728 -1625.967170
1678.985782 94.673076 -1621.005187
1678.162872 94.571870 -1624.600460
1677.339961 94.470665 -1628.195734
1665.173189 93.602480 -1623.146330
1664.355184 93.501885 -1626.719853
1663.537282 93.401296 -1630.293236
1651.390578 92.535571 -1625.156514
1627.127254 90.807804 -1614.751970
1626.324291 90.709056 -1618.259944
1603.773650 89.143623 -1604.849412
1602.980342 89.046061 -1608.315266
1602.187053 88.948496 -1611.781241
1601.393763 88.850931 -1615.247216
1600.600335 88.753365 -1618.713089
1589.391189 87.954632 -1613.957479
1588.602529 87.857639 -1617.403105
1587.813906 87.760642 -1620.848971
1576.623007 86.964168 -1616.012621
1554.269409 85.374645 -1606.218993
1543.106451 84.581591 -1601.261632
1542.336195 84.486864 -1604.626740
1541.565958 84.392135 -1607.991969
1531.285981 83.659345 -1603.654208
1509.130490 82.045864 -1597.472380
1498.127442 81.224165 -1596.293253
1497.374371 81.131565 -1599.582725
1496.621420 81.038967 -1602.872179
1495.868470 80.946370 -1606.161633
1485.643929 80.220394 -1601.582164
1484.895164 80.128315 -1604.853189
1465.220089 78.771555 -1592.311891
1464.479815 78.680515 -1595.546040
1733.001162 94.915905 -1627.066141
1732.157482 94.812145 -1630.752176
1731.313783 94.708388 -1634.438090
1719.085752 93.855125 -1629.654705
1718.247097 93.751979 -1633.318970
1705.159081 92.843006 -1627.815158
1704.325776 92.740525 -1631.455752
1691.254002 91.833532 -1625.881388
1690.426084 91.731711 -1629.498552
1678.243899 90.884094 -1624.515197
1677.420988 90.782889 -1628.110470
1665.253724 89.937107 -1623.061585
1664.435719 89.836513 -1626.635107
1663.617816 89.735924 -1630.208491
1651.470621 88.892587 -1625.072286
1639.333440 88.050505 -1619.892302
1638.525590 87.951143 -1623.422147
1626.403349 87.110887 -1618.176752
1625.600368 87.012141 -1621.684605
1603.058453 85.490969 -1608.233071
1602.265164 85.393404 -1611.699046
1601.471875 85.295839 -1615.165021
1600.678447 85.198273 -1618.630894
1589.468847 84.420220 -1613.875762
1588.680186 84.323227 -1617.321387
1577.484325 83.546865 -1612.505847
1576.700210 83.450437 -1615.931382
1554.345704 81.902267 -1606.138710
1543.182291 81.129893 -1601.181827
1542.412035 81.035166 -1604.546935
1541.641798 80.940437 -1607.912165
1531.361404 80.226604 -1603.574841
1499.707441 78.035226 -1589.636092
1498.954509 77.942626 -1592.925666
1497.448507 77.757426 -1599.504714
1496.695556 77.664829 -1602.794168
1495.942606 77.572231 -1606.083622
1485.717649 76.865197 -1601.504590
1484.968884 76.773118 -1604.775615
1733.927915 91.238828 -1623.292692
1733.084234 91.135068 -1626.978727
1732.240554 91.031308 -1630.664761
1731.396854 90.927550 -1634.350675
1719.168331 90.096698 -1629.567808
1718.329677 89.993552 -1633.232074
1705.241130 89.108691 -1627.728819
1704.407825 89.006210 -1631.369413
1691.335522 88.123360 -1625.795608
1690.507603 88.021539 -1629.412771
1678.324926 87.196310 -1624.429934
1677.502015 87.095105 -1628.025207
1665.334259 86.271727 -1622.976840
1664.516254 86.171133 -1626.550362
1652.363660 85.349604 -1621.436427
1651.550663 85.249626 -1624.988059
1639.412991 84.429933 -1619.808593
1638.605140 84.330571 -1623.338438
1626.482408 83.512718 -1618.093561
1625.679426 83.413972 -1621.601414
1603.136565 81.935876 -1608.150876
1602.343276 81.838312 -1611.616851
1601.549987 81.740747 -1615.082826
1590.335248 80.982801 -1610.348159
1589.546504 80.885801 -1613.794045
1588.757844 80.788808 -1617.239670
1577.561527 80.033142 -1612.424608
1576.777413 79.936713 -1615.850143
1555.196901 78.525193 -1602.673090
1554.421998 78.429896 -1606.058428
1543.258131 77.678195 -1601.102022
1542.487875 77.583469 -1604.467131
1541.717638 77.488739 -1607.832360
1531.436828 76.793863 -1603.495475
1530.670776 76.699652 -1606.842275
1529.904808 76.605449 -1610.188816
1499.781577 74.661072 -1589.558080
1499.028646 74.568472 -1592.847654
1496.769692 74.290675 -1602.716156
1496.016742 74.198077 -1606.005610
1485.791368 73.510000 -1601.427016
1485.042603 73.417921 -1604.698041
1734.010987 87.457990 -1623.205277
1733.167306 87.354230 -1626.891312
1732.323625 87.250470 -1630.577347
1731.479926 87.146712 -1634.263261
1730.636125 87.042949 -1637.949314
1718.412256 86.235118 -1633.145177
1705.323180 85.374392 -1627.642480
1704.489875 85.271911 -1631.283074
1691.417041 84.413180 -1625.709827
1690.589123 84.311359 -1629.326990
1678.405953 83.508534 -1624.344671
1677.583042 83.407329 -1627.939944
1665.414794 82.606347 -1622.892094
1664.596789 82.505753 -1626.465617
1652.443703 81.706620 -1621.352199
1640.300549 80.908720 -1616.195262
1639.492541 80.809360 -1619.724884
1638.684691 80.709998 -1623.254728
1626.561466 79.914549 -1618.010370
1625.758484 79.815803 -1621.518222
1603.214677 78.380800 -1608.068681
1602.421387 78.283235 -1611.534656
1601.628098 78.185670 -1615.000631
1590.412905 77.448405 -1610.266442
1589.624161 77.351404 -1613.712328
1588.835501 77.254412 -1617.157953
1577.638730 76.519403 -1612.343369
1576.854616 76.422974 -1615.768904
1555.273195 75.052822 -1602.592807
1554.498292 74.957526 -1605.978145
1543.333970 74.226505 -1601.022217
1542.563715 74.131778 -1604.387326
1541.793478 74.037049 -1607.752555
1531.512251 73.361130 -1603.416109
1530.746199 73.266919 -1606.762909
1529.980231 73.172716 -1610.109449
1499.855713 71.286926 -1589.480068
1498.349850 71.101726 -1596.059217
1497.596779 71.009126 -1599.348690
1496.843828 70.916529 -1602.638144
1486.613834 70.246900 -1598.078297
1485.865088 70.154819 -1601.349443
1485.116323 70.062739 -1604.620468
1730.719197 83.262111 -1637.861899
1718.494836 82.476684 -1633.058280
1717.656024 82.373539 -1636.722323
1704.571924 81.537604 -1631.196735
1691.498560 80.702993 -1625.624045
1690.670642 80.601171 -1629.241209
1678.486980 79.820758 -1624.259408
1677.664069 79.719553 -1627.854681
1676.841020 79.618347 -1631.449852
1664.677324 78.840381 -1626.380872
1652.523745 78.063659 -1621.267972
1640.380099 77.288147 -1616.111552
1639.572091 77.188788 -1619.641174
1638.764241 77.089426 -1623.171019
1626.640524 76.316381 -1617.927178
1625.837542 76.217635 -1621.435031
1603.292788 74.825707 -1607.986485
1602.499499 74.728142 -1611.452460
1601.706210 74.630578 -1614.918435
1590.490562 73.913993 -1610.184725
1589.701818 73.816993 -1613.630610
1588.913158 73.720000 -1617.076236
1577.715933 73.005679 -1612.262130
1576.931818 72.909251 -1615.687665
1555.349489 71.580452 -1602.512525
1554.574586 71.485155 -1605.897862
1543.409810 70.774807 -1600.942413
1542.639555 70.680081 -1604.307521
1532.353643 70.022600 -1599.990202
1531.587674 69.928397 -1603.336742
1530.821623 69.834186 -1606.683543
1509.428700 68.473458 -1597.158580
1499.176918 67.820180 -1592.691631
1498.423986 67.727580 -1595.981205
1497.670915 67.634980 -1599.270678
1496.917964 67.542382 -1602.560132
1486.687554 66.891711 -1598.000723
1485.938807 66.799629 -1601.271869
1485.190042 66.707550 -1604.542895
1736.708311 80.207602 -1611.972446
1730.802268 79.481281 -1637.774485
1718.577415 78.718250 -1632.971384
1717.738603 78.615105 -1636.635426
1704.653973 77.803296 -1631.110396
1703.820687 77.700813 -1634.751111
1690.752161 76.890991 -1629.155428
1678.568007 76.132974 -1624.174144
1677.745097 76.031769 -1627.769418
1665.575864 75.275595 -1622.722604
1653.416665 74.520651 -1617.632131
1652.603788 74.420676 -1621.183745
1640.459650 73.667575 -1616.027843
1639.651642 73.568215 -1619.557465
1638.843792 73.468854 -1623.087310
1626.719582 72.718204 -1617.843987
1625.916601 72.619458 -1621.351840
1614.677244 71.920671 -1616.721237
1613.878910 71.822494 -1620.208861
1601.784322 71.075493 -1614.836240
1600.990893 70.977927 -1618.302113
1589.779476 70.282581 -1613.548893
1588.990815 70.185588 -1616.994519
1577.793136 69.491948 -1612.180891
1577.009021 69.395519 -1615.606426
1555.425783 68.108081 -1602.432242
1544.255906 67.417844 -1597.497499
1543.485650 67.323117 -1600.862608
1542.715395 67.228391 -1604.227716
1532.429066 66.589860 -1599.910835
1531.663098 66.495656 -1603.257376
1530.897046 66.401445 -1606.604176
1509.503252 65.080355 -1597.080130
1508.745996 64.987236 -1600.388031
1507.988898 64.894116 -1603.696155
1497.745051 64.260833 -1599.192666
1496.992100 64.168236 -1602.482120
1496.239150 64.075639 -1605.771574
1486.012527 63.444440 -1601.194296
1738.478762 76.634282 -1604.513083
1737.635063 76.530524 -1608.198997
1736.791383 76.426764 -1611.885031
1718.659995 74.959815 -1632.884487
1717.821183 74.856671 -1636.548530
1704.736023 74.068989 -1631.024057
1703.902737 73.966506 -1634.664772
1690.833681 73.180811 -1629.069646
1678.649034 72.445198 -1624.088881
1677.826124 72.343993 -1627.684155
1665.656399 71.610215 -1622.637859
1653.496707 70.877675 -1617.547903
1652.683831 70.777699 -1621.099518
1640.539200 70.047002 -1615.944134
1639.731192 69.947643 -1619.473756
1638.923342 69.848281 -1623.003600
1626.798641 69.120036 -1617.760796
1625.995659 69.021290 -1621.268648
1614.755848 68.343182 -1616.638524
1613.957514 68.245006 -1620.126148
1601.862433 67.520401 -1614.754045
1601.069005 67.422835 -1618.219918
1589.857133 66.748169 -1613.467176
1589.068473 66.651176 -1616.912801
1577.870339 65.978216 -1612.099651
1555.502078 64.635703 -1602.351959
1544.331746 63.966154 -1597.417695
1543.561490 63.871427 -1600.782803
1542.791234 63.776700 -1604.147912
1532.504490 63.157127 -1599.831469
1531.738521 63.062923 -1603.178009
1530.972469 62.968712 -1606.524810
1530.206501 62.874509 -1609.871350
1509.577805 61.687252 -1597.001679
1508.820548 61.594133 -1600.309581
1508.063450 61.501013 -1603.617705
1497.819187 60.886687 -1599.114654
1497.066236 60.794090 -1602.404108
1496.313286 60.701492 -1605.693562
1486.086246 60.089251 -1601.116722
1736.874454 72.645926 -1611.797617
1718.742574 71.201381 -1632.797590
1717.903762 71.098237 -1636.461633
1704.818072 70.334682 -1630.937718
1703.984786 70.232199 -1634.578433
1678.730061 68.757414 -1624.003618
1666.554818 68.045434 -1618.979610
1665.736933 67.944843 -1622.553114
1653.576750 67.234698 -1617.463676
1652.763874 67.134723 -1621.015290
1640.618751 66.426430 -1615.860424
1628.483625 65.719364 -1610.661658
1627.680662 65.620616 -1614.169631
1626.877699 65.521867 -1617.677604
1626.074717 65.423121 -1621.185457
1614.834452 64.765686 -1616.555811
1614.036118 64.667510 -1620.043434
1601.940545 63.965316 -1614.671849
1601.147117 63.867751 -1618.137722
1589.934790 63.213765 -1613.385459
1589.146130 63.116772 -1616.831084
1577.947542 62.464485 -1612.018412
1555.578372 61.163332 -1602.271676
1544.407586 60.514456 -1597.337890
1543.637330 60.419729 -1600.702998
1542.867074 60.325003 -1604.068107
1542.096837 60.230273 -1607.433336
1531.813945 59.630183 -1603.098643
1531.047893 59.535971 -1606.445443
1530.281924 59.441768 -1609.791984
1529.515835 59.347562 -1613.138543
1508.895101 58.201030 -1600.231131
1498.646394 57.605141 -1595.747170
1497.893323 57.512541 -1599.036642
1497.140372 57.419943 -1602.326096
1496.387422 57.327346 -1605.615550
1465.730294 55.550614 -1591.775012
1718.825154 67.442947 -1632.710693
1717.986342 67.339803 -1636.374736
1704.900122 66.600375 -1630.851380
1691.824638 65.862265 -1625.280921
1679.633999 65.170843 -1620.323082
1678.811088 65.069638 -1623.918355
1666.635352 64.380054 -1618.894864
1665.817468 64.279463 -1622.468368
1653.656793 63.591722 -1617.379449
1652.843916 63.491747 -1620.931063
1640.698301 62.805850 -1615.776715
1628.562683 62.121195 -1610.578466
1627.759720 62.022447 -1614.086440
1626.956757 61.923698 -1617.594413
1626.153775 61.824952 -1621.102266
1614.913056 61.188198 -1616.473098
1614.114721 61.090022 -1619.960721
1602.018657 60.410224 -1614.589654
1601.225228 60.312659 -1618.055527
1590.012448 59.679353 -1613.303742
1589.223787 59.582360 -1616.749367
1588.435164 59.485363 -1620.195234
1554.879763 57.595665 -1605.576731
1554.104841 57.500371 -1608.961947
1553.330059 57.405078 -1612.347266
1542.172677 56.778583 -1607.353531
1541.402403 56.683859 -1610.718519
1540.632166 56.589130 -1614.083748
1530.357348 56.009035 -1609.712617
1529.591259 55.914829 -1613.059176
1528.825188 55.820620 -1616.405856
1508.212555 54.714806 -1603.460805
1497.967459 54.138395 -1598.958631
1497.214508 54.045797 -1602.248085
1496.461558 53.953200 -1605.537539
1466.543474 52.324376 -1588.464286
1465.803181 52.233339 -1591.698315
1718.907733 63.684513 -1632.623797
1718.068921 63.581368 -1636.287839
1691.906157 62.152085 -1625.195140
1679.715026 61.483060 -1620.237818
1678.892116 61.381854 -1623.833092
1678.069205 61.280649 -1627.428365
1665.898003 60.614083 -1622.383623
1653.736836 59.948746 -1617.295222
1641.585823 59.284642 -1612.163142
1640.777852 59.185277 -1615.693006
1628.641741 58.523027 -1610.495275
1627.838778 58.424278 -1614.003248
1627.035815 58.325530 -1617.511222
1626.232834 58.226784 -1621.019074
1614.991660 57.610702 -1616.390384
1614.193325 57.512526 -1619.878008
1613.394908 57.414342 -1623.365891
1600.510051 56.660009 -1621.439307
1589.301445 56.047949 -1616.667650
1588.512822 55.950951 -1620.113516
1577.317833 55.340594 -1615.281470
1566.132418 54.731377 -1610.409169
1554.956057 54.123295 -1605.496448
1554.181135 54.028000 -1608.881665
1543.018754 53.421622 -1603.908498
1542.248517 53.326893 -1607.273727
1541.478243 53.232169 -1610.638715
1540.708006 53.137440 -1614.003944
1530.432771 52.576294 -1609.633251
1529.666682 52.482088 -1612.979810
1508.287108 51.321703 -1603.382354
1498.041595 50.764248 -1598.880619
1497.288645 50.671651 -1602.170073
1496.535694 50.579054 -1605.459527
1465.876068 48.916056 -1591.621618
1465.135794 48.825016 -1594.855767
1748.576843 61.793648 -1624.196215
1747.727776 61.689228 -1627.905680
1734.592489 60.992139 -1622.593375
1733.748808 60.888379 -1626.279409
1732.905128 60.784619 -1629.965444
1718.990313 59.926079 -1632.536900
1718.151501 59.822934 -1636.200943
1691.987676 58.441905 -1625.109359
1691.159758 58.340084 -1628.726522
1678.973143 57.694078 -1623.747829
1678.150232 57.592873 -1627.343102
1653.816878 56.305777 -1617.210995
1641.665373 55.664070 -1612.079433
1629.523661 55.023593 -1606.904249
1628.720800 54.924850 -1610.412084
1627.917837 54.826102 -1613.920057
1627.114874 54.727353 -1617.428030
1626.311892 54.628607 -1620.935883
1615.070263 54.033214 -1616.307671
1602.968169 53.397612 -1610.959289
1602.174880 53.300047 -1614.425264
1600.588162 53.104917 -1621.357111
1589.379102 52.513545 -1616.585933
1588.590479 52.416547 -1620.031799
1577.395036 51.826862 -1615.200231
1566.209167 51.238327 -1610.328408
1555.032351 50.650924 -1605.416165
1554.257430 50.555630 -1608.801382
1543.094594 49.969925 -1603.828693
1542.324357 49.875195 -1607.193922
1541.554083 49.780471 -1610.558910
1540.783846 49.685742 -1613.924139
1530.508194 49.143561 -1609.553884
1519.377123 48.561776 -1604.441810
1518.615681 48.468140 -1607.768140
1508.361660 47.928607 -1603.303905
1507.604404 47.835489 -1606.611806
1497.362781 47.297505 -1602.092061
1496.609830 47.204907 -1605.381515
1486.381125 46.668486 -1600.806428
1465.948954 45.598781 -1591.544921
1465.208680 45.507740 -1594.779070
1455.869404 45.015122 -1590.796191
1455.132936 44.924556 -1594.013452
1748.660445 57.988683 -1624.108242
1747.811378 57.884263 -1627.817707
1734.675560 57.211301 -1622.505960
1719.072893 56.167645 -1632.450003
1718.234080 56.064500 -1636.114046
1692.897114 54.833539 -1621.406414
1692.069196 54.731718 -1625.023577
1691.241277 54.629897 -1628.640741
1679.054170 54.006295 -1623.662565
1678.231259 53.905089 -1627.257839
1654.709797 52.762776 -1613.575153
1653.896921 52.662801 -1617.126767
1641.744923 52.043497 -1611.995724
1629.602719 51.425425 -1606.821058
1628.799858 51.326682 -1610.328892
1627.996895 51.227933 -1613.836866
1616.745498 50.652083 -1609.249469
1615.947164 50.553906 -1612.737093
1603.839570 49.940085 -1607.411118
1603.046281 49.842520 -1610.877093
1602.252992 49.744955 -1614.343068
1601.459563 49.647390 -1617.808941
1590.245419 49.076125 -1613.058590
1589.456759 48.979133 -1616.504216
1578.256354 48.409559 -1611.693456
1577.472239 48.313131 -1615.118992
1566.285916 47.745276 -1610.247647
1565.506346 47.649412 -1613.653093
1554.333724 47.083252 -1608.721099
1553.558941 46.987958 -1612.106418
1542.400197 46.423505 -1607.114117
1541.629922 46.328781 -1610.479105
1540.859685 46.234052 -1613.844334
1530.583618 45.710821 -1609.474518
1519.452092 45.149716 -1604.362922
1518.690650 45.056080 -1607.689252
1508.436213 44.535504 -1603.225454
1498.189867 44.015956 -1598.724595
1497.436917 43.923358 -1602.014049
1496.683966 43.830761 -1605.303503
1486.454844 43.313297 -1600.728854
1466.021841 42.281498 -1591.468224
1465.281567 42.190458 -1594.702373
1455.941912 41.715073 -1590.719893
1455.205444 41.624507 -1593.937153
1454.468995 41.533939 -1597.154535
1748.744047 54.183726 -1624.020270
1735.602313 53.534231 -1618.732511
1734.758632 53.430471 -1622.418545
1722.510265 52.821791 -1617.706389
1718.316660 52.306066 -1636.027149
1692.978633 51.123359 -1621.320633
1692.150715 51.021538 -1624.937796
1691.322797 50.919717 -1628.554960
1679.135197 50.318518 -1623.577302
1678.312286 50.217313 -1627.172576
1654.789840 49.119800 -1613.490926
1653.976964 49.019825 -1617.042540
1629.681777 47.827256 -1606.737867
1628.878916 47.728513 -1610.245701
1628.075953 47.629764 -1613.753674
1616.824102 47.074587 -1609.166756
1616.025768 46.976411 -1612.654380
1603.917682 46.385001 -1607.328923
1603.124392 46.287436 -1610.794898
1602.331103 46.189871 -1614.260873
1601.537675 46.092305 -1617.726746
1590.323077 45.541714 -1612.976873
1589.534416 45.444721 -1616.422498
1578.333557 44.895836 -1611.612217
1577.549442 44.799407 -1615.037753
1566.362664 44.252225 -1610.166886
1565.583095 44.156361 -1613.572332
1554.410018 43.610881 -1608.640816
1553.635236 43.515588 -1612.026135
1542.476037 42.971807 -1607.034312
1541.705762 42.877083 -1610.399300
1540.935525 42.782354 -1613.764529
1530.659041 42.278080 -1609.395151
1519.527061 41.737663 -1604.284034
1518.765619 41.644027 -1607.610364
1508.510765 41.142401 -1603.147004
1498.264003 40.641809 -1598.646583
1497.511053 40.549212 -1601.936037
1496.758102 40.456615 -1605.225491
1486.528564 39.958108 -1600.651281
1485.779798 39.866028 -1603.922306
1466.094727 38.964223 -1591.391527
1465.354453 38.873183 -1594.625676
1456.014420 38.415032 -1590.643594
1455.277952 38.324466 -1593.860855
1454.541503 38.233897 -1597.078236
1453.805156 38.143334 -1600.295478
1736.529185 49.857156 -1614.959043
1735.685384 49.753393 -1618.645096
1734.841704 49.649633 -1622.331131
1722.592845 49.063357 -1617.619492
1693.060152 47.413179 -1621.234852
1692.232234 47.311358 -1624.852015
1691.404316 47.209537 -1628.469179
1679.216224 46.630735 -1623.492039
1678.393314 46.529529 -1627.087312
1654.057006 45.376849 -1616.958313
1641.904024 44.802352 -1611.828305
1629.760835 44.229087 -1606.654676
1628.957974 44.130344 -1610.162510
1628.155011 44.031596 -1613.670483
1616.902706 43.497099 -1609.084043
1616.104372 43.398922 -1612.571666
1603.995793 42.829908 -1607.246728
1603.202504 42.732344 -1610.712703
1602.409215 42.634779 -1614.178678
1601.615787 42.537213 -1617.644551
1590.400734 42.007302 -1612.895156
1589.612074 41.910309 -1616.340781
1588.823451 41.813312 -1619.786648
1577.626645 41.285676 -1614.956514
1566.439413 40.759174 -1610.086125
1565.659843 40.663310 -1613.491571
1554.486312 40.138511 -1608.560533
1543.322113 39.614846 -1603.589279
1542.551876 39.520117 -1606.954508
1532.266485 39.033761 -1602.622444
1531.500433 38.939550 -1605.969244
1520.363434 38.419244 -1600.878574
1510.099673 37.935536 -1596.452529
1509.342416 37.842418 -1599.760430
1508.585318 37.749298 -1603.068554
1498.338139 37.267663 -1598.568572
1497.585189 37.175066 -1601.858026
1496.832238 37.082468 -1605.147480
1486.602283 36.602919 -1600.573707
1485.853518 36.510839 -1603.844733
1475.636322 36.032851 -1599.215396
1465.427340 35.555904 -1594.548979
1456.086928 35.114983 -1590.567296
1455.350460 35.024417 -1593.784556
1454.614011 34.933848 -1597.001938
1453.877664 34.843285 -1600.219180
1736.612257 46.076318 -1614.871628
1735.768456 45.972555 -1618.557681
1734.924776 45.868795 -1622.243716
1721.836751 45.201787 -1621.196740
1693.141672 43.702992 -1621.149071
1692.313754 43.601171 -1624.766234
1691.485835 43.499349 -1628.383397
1690.657917 43.397528 -1632.000561
1678.474341 42.841753 -1627.002049
1654.137049 41.733872 -1616.874085
1641.983575 41.181780 -1611.744596
1629.839893 40.630918 -1606.571484
1629.037032 40.532175 -1610.079318
1628.234069 40.433427 -1613.587292
1616.981310 39.919610 -1609.001330
1616.182976 39.821434 -1612.488953
1604.073905 39.274824 -1607.164532
1603.280616 39.177259 -1610.630507
1602.487327 39.079694 -1614.096482
1601.693898 38.982128 -1617.562355
1590.478391 38.472898 -1612.813439
1589.689731 38.375905 -1616.259064
1588.901108 38.278908 -1619.704931
1577.703848 37.771945 -1614.875275
1576.919854 37.675519 -1618.300792
1555.337528 36.761430 -1605.095034
1554.562607 36.666136 -1608.480250
1543.397953 36.163152 -1603.509474
1542.627716 36.068423 -1606.874703
1532.341908 35.601024 -1602.543078
1531.575856 35.506813 -1605.889878
1520.438403 35.007188 -1600.799685
1510.174225 34.542433 -1596.374079
1509.416969 34.449314 -1599.681980
1499.165346 33.986117 -1595.201087
1498.412275 33.893517 -1598.490560
1497.659325 33.800920 -1601.780014
1496.906374 33.708322 -1605.069468
1486.676003 33.247726 -1600.496134
1476.454085 32.788177 -1595.885683
1475.709625 32.696618 -1599.138260
1465.500226 32.238625 -1594.472282
1456.159436 31.814937 -1590.490997
1455.422968 31.724371 -1593.708258
1454.686519 31.633803 -1596.925639
1453.950172 31.543240 -1600.142881
1736.695329 42.295488 -1614.784214
1735.851528 42.191725 -1618.470267
1735.007847 42.087965 -1622.156301
1734.164167 41.984205 -1625.842336
1733.320486 41.880445 -1629.528371
1721.080658 41.340205 -1624.773988
1693.223191 39.992812 -1621.063290
1692.395273 39.890991 -1624.680453
1691.567355 39.789169 -1628.297616
1690.739436 39.687348 -1631.914780
1678.555368 39.153969 -1626.916786
1666.381213 38.621822 -1621.875152
1642.063125 37.561211 -1611.660887
1641.255154 37.461846 -1615.190750
1629.116091 36.934003 -1609.996127
1628.313128 36.835254 -1613.504100
1617.059914 36.342114 -1608.918616
1604.945324 35.817298 -1603.616483
1593.710977 35.326476 -1598.948682
1592.922317 35.229483 -1602.394307
1592.133573 35.132482 -1605.840192
1591.344792 35.035487 -1609.285836
1590.556049 34.938486 -1612.731721
1579.349262 34.451072 -1607.942844
1578.565166 34.354642 -1611.368500
1567.372359 33.868929 -1606.519176
1566.592910 33.773068 -1609.924603
1555.413823 33.289060 -1605.014751
1554.638901 33.193766 -1608.399968
1543.473793 32.711462 -1603.429669
1542.703556 32.616733 -1606.794898
1532.417332 32.168287 -1602.463711
1531.651280 32.074076 -1605.810511
1530.885311 31.979873 -1609.157052
1509.491521 31.056215 -1599.603530
1499.239482 30.611971 -1595.123075
1498.486411 30.519371 -1598.412548
1497.733461 30.426773 -1601.702002
1496.980510 30.334176 -1604.991456
1486.749722 29.892536 -1600.418560
1476.527388 29.451941 -1595.808547
1475.782929 29.360382 -1599.061125
1475.038330 29.268823 -1602.313601
1464.832959 28.830308 -1597.629715
1455.495476 28.424326 -1593.631959
1454.759027 28.333757 -1596.849340
1454.022680 28.243195 -1600.066583
1736.778401 38.514650 -1614.696799
1735.934599 38.410887 -1618.382852
1735.090919 38.307127 -1622.068887
1734.247238 38.203367 -1625.754921
1733.403558 38.099607 -1629.440956
1721.163238 37.581771 -1624.687091
1720.324444 37.478624 -1628.351254
1719.485790 37.375477 -1632.015520
1694.132647 36.384451 -1617.360466
1693.304710 36.282632 -1620.977509
1692.476792 36.180811 -1624.594672
1691.648874 36.078989 -1628.211835
1679.459305 35.567395 -1623.236250
1678.636395 35.466190 -1626.831523
1666.461748 34.956442 -1621.790407
1642.142676 33.940639 -1611.577177
1641.334705 33.841274 -1615.107041
1629.195149 33.335830 -1609.912935
1628.392186 33.237082 -1613.420909
1605.023436 32.262206 -1603.534287
1593.788634 31.792068 -1598.866965
1592.999974 31.695075 -1602.312590
1592.211231 31.598074 -1605.758475
1591.422450 31.501079 -1609.204119
1580.210561 31.033772 -1604.435948
1579.426465 30.937341 -1607.861605
1578.642369 30.840910 -1611.287261
1567.449107 30.375878 -1606.438415
1566.669659 30.280017 -1609.843842
1555.490117 29.816689 -1604.934468
1554.715195 29.721395 -1608.319685
1543.549633 29.259768 -1603.349864
1542.779396 29.165039 -1606.715093
1532.492755 28.735550 -1602.384345
1531.726703 28.641339 -1605.731145
1530.960735 28.547136 -1609.077685
1509.566074 27.663112 -1599.525080
1499.313618 27.237825 -1595.045064
1498.560547 27.145224 -1598.334536
1497.807597 27.052627 -1601.623990
1487.572188 26.629429 -1597.069841
1486.823442 26.537347 -1600.340987
1486.074676 26.445268 -1603.612012
1475.856232 26.024146 -1598.983990
1475.111633 25.932587 -1602.236466
1464.905846 25.513030 -1597.553018
1464.165553 25.421992 -1600.787047
1463.425260 25.330954 -1604.021075
1462.684986 25.239914 -1607.255224
1734.330310 34.422529 -1625.667507
1733.486630 34.318769 -1629.353541
1721.245817 33.823340 -1624.600194
1720.407024 33.720193 -1628.264358
1719.568369 33.617047 -1631.928623
1694.214167 32.674267 -1617.274685
1693.386230 32.572448 -1620.891727
1692.558312 32.470627 -1624.508891
1691.730393 32.368806 -1628.126054
1679.540333 31.879615 -1623.150986
1678.717422 31.778410 -1626.746260
1666.542282 31.291065 -1621.705661
1665.724278 31.190471 -1625.279184
1642.222226 30.320066 -1611.493468
1641.414255 30.220701 -1615.023331
1629.274207 29.737662 -1609.829744
1628.471244 29.638913 -1613.337717
1605.894855 28.804680 -1599.986238
1605.101548 28.707118 -1603.452092
1593.866292 28.257656 -1598.785247
1593.077631 28.160663 -1602.230873
1592.288888 28.063663 -1605.676758
1591.500107 27.966667 -1609.122402
1580.287764 27.520040 -1604.354709
1579.503668 27.423610 -1607.780365
1578.719572 27.327179 -1611.206022
1577.935457 27.230751 -1614.631557
1577.151463 27.134325 -1618.057074
1555.566411 26.344315 -1604.854185
1554.791489 26.249021 -1608.239402
1543.625473 25.808074 -1603.270060
1542.855236 25.713345 -1606.635289
1532.568178 25.302813 -1602.304978
1531.802127 25.208602 -1605.651778
1531.036158 25.114399 -1608.998319
1499.387754 23.863679 -1594.967052
1498.634683 23.771078 -1598.256524
1488.394552 23.366312 -1593.721261
1487.645908 23.274236 -1596.992267
1486.897161 23.182154 -1600.263413
1476.673994 22.779472 -1595.654277
1475.929535 22.687914 -1598.906855
1475.184936 22.596355 -1602.159330
1464.978732 22.195751 -1597.476321
1464.238440 22.104713 -1600.710350
1463.498147 22.013675 -1603.944378
1462.757873 21.922635 -1607.178527
1748.396591 31.249534 -1627.201900
1747.547542 31.145112 -1630.911486
1734.413382 30.641695 -1625.580092
1733.569701 30.537935 -1629.266127
1721.328397 30.064906 -1624.513298
1720.489603 29.961759 -1628.177461
1719.650949 29.858613 -1631.841726
1706.553921 29.359775 -1626.347397
1693.467749 28.862265 -1620.805946
1692.639831 28.760443 -1624.423110
1691.811913 28.658622 -1628.040273
1679.621360 28.191839 -1623.065723
1678.798449 28.090633 -1626.660997
1677.975399 27.989428 -1630.256168
1665.804813 27.525095 -1625.194439
1642.301777 26.699494 -1611.409759
1641.493806 26.600129 -1614.939622
1629.353265 26.139493 -1609.746553
1628.550302 26.040745 -1613.254526
1605.972967 25.249592 -1599.904043
1605.179659 25.152029 -1603.369897
1593.943949 24.723248 -1598.703530
1593.155289 24.626255 -1602.149156
1592.366545 24.529255 -1605.595041
1591.577764 24.432259 -1609.040685
1590.789021 24.335258 -1612.486570
1579.580871 23.909882 -1607.699126
1578.796774 23.813451 -1611.124783
1567.602604 23.389776 -1606.276893
1566.823156 23.293915 -1609.682321
1555.642705 22.871944 -1604.773902
1554.867783 22.776650 -1608.159119
1543.701313 22.356380 -1603.190255
1542.931076 22.261651 -1606.555484
1532.643602 21.870076 -1602.225612
1531.877550 21.775865 -1605.572412
1531.111581 21.681662 -1608.918953
1499.461890 20.489532 -1594.889040
1489.217037 20.103202 -1590.372662
1488.468272 20.011123 -1593.643687
1487.719627 19.919046 -1596.914694
1486.970881 19.826965 -1600.185840
1476.747297 19.443236 -1595.577141
1476.002838 19.351678 -1598.829719
1475.258239 19.260119 -1602.082195
1465.051619 18.878475 -1597.399624
1464.311326 18.787438 -1600.633653
1463.571034 18.696400 -1603.867681
1462.830759 18.605360 -1607.101830
1747.631144 27.340151 -1630.823513
1734.496454 26.860857 -1625.492677
1733.652773 26.757097 -1629.178712
1721.410976 26.306472 -1624.426401
1708.302682 25.830436 -1618.979731
1707.469275 25.727949 -1622.620464
1706.635970 25.625468 -1626.261058
1693.549269 25.152085 -1620.720165
1692.721350 25.050263 -1624.337329
1691.893432 24.948442 -1627.954492
1679.702387 24.504059 -1622.980460
1678.879476 24.402853 -1626.575734
1678.056426 24.301648 -1630.170905
1665.885347 23.859715 -1625.109694
1665.067445 23.759126 -1628.683077
1629.432324 22.541321 -1609.663361
1628.629361 22.442572 -1613.171335
1606.051079 21.694503 -1599.821847
1605.257771 21.596941 -1603.287702
1604.464463 21.499378 -1606.753556
1603.671174 21.401813 -1610.219531
1602.877885 21.304249 -1613.685506
1591.655422 20.897847 -1608.958968
1590.866678 20.800847 -1612.404853
1579.658074 20.396151 -1607.617887
1578.873977 20.299720 -1611.043544
1567.679353 19.896725 -1606.196132
1566.899904 19.800864 -1609.601560
1545.317664 19.094144 -1596.380233
1544.547408 18.999417 -1599.745342
1543.777153 18.904690 -1603.110450
1543.006916 18.809961 -1606.475679
1542.236641 18.715237 -1609.840667
1531.952973 18.343128 -1605.493046
1531.187005 18.248925 -1608.839586
1499.536026 17.115386 -1594.811028
1489.290757 16.748013 -1590.295088
1488.541991 16.655933 -1593.566114
1487.793347 16.563857 -1596.837120
1487.044600 16.471776 -1600.108266
1467.345226 15.834311 -1587.620619
1466.604933 15.743274 -1590.854648
1465.864659 15.652233 -1594.088797
1456.521975 15.314707 -1590.109504
1455.785508 15.224141 -1593.326765
1455.049059 15.133572 -1596.544146
1454.312711 15.043009 -1599.761388
1734.579525 23.080022 -1625.405263
1733.735845 22.976262 -1629.091297
1721.493556 22.548038 -1624.339504
1708.384731 22.096129 -1618.893392
1707.551325 21.993642 -1622.534125
1706.718020 21.891161 -1626.174719
1693.630788 21.441901 -1620.634384
1692.802870 21.340080 -1624.251547
1691.974951 21.238258 -1627.868711
1679.783414 20.816279 -1622.895197
1678.960503 20.715073 -1626.490470
1666.783887 20.294933 -1621.451426
1665.965882 20.194339 -1625.024948
1629.511382 18.943152 -1609.580170
1628.708419 18.844403 -1613.088143
1605.335883 18.041853 -1603.205506
1604.542575 17.944290 -1606.671361
1603.749286 17.846725 -1610.137336
1602.955997 17.749160 -1613.603311
1591.733079 17.363439 -1608.877250
1590.944335 17.266439 -1612.323136
1579.735277 16.882419 -1607.536648
1578.951180 16.785989 -1610.962304
1578.167066 16.689560 -1614.387840
1566.976653 16.307813 -1609.520799
1545.393504 15.642450 -1596.300428
1544.623248 15.547723 -1599.665537
1543.852993 15.452996 -1603.030645
1543.082756 15.358267 -1606.395875
1532.794448 15.004602 -1602.066879
1532.028397 14.910391 -1605.413679
1531.262428 14.816188 -1608.760220
1530.496339 14.721982 -1612.106779
1499.610162 13.741240 -1594.733016
1489.364476 13.392820 -1590.217515
1479.127281 13.045443 -1585.665137
1478.382822 12.953885 -1588.917715
1477.638362 12.862326 -1592.170293
1467.418112 12.517032 -1587.543922
1466.677819 12.425995 -1590.777951
1465.937545 12.334954 -1594.012100
1456.594483 12.014662 -1590.033206
1455.858015 11.924096 -1593.250466
1455.121566 11.833527 -1596.467848
1454.385219 11.742964 -1599.685090
1734.662597 19.299184 -1625.317848
1733.818917 19.195424 -1629.003883
1721.576135 18.789603 -1624.252608
1708.466781 18.361818 -1618.807053
1707.633374 18.259331 -1622.447786
1694.540244 17.833540 -1616.931560
1693.712307 17.731721 -1620.548603
1692.884389 17.629900 -1624.165766
1692.056471 17.528078 -1627.782930
1679.864441 17.128499 -1622.809934
1679.041530 17.027294 -1626.405207
1678.218481 16.926088 -1630.000379
1666.046417 16.528962 -1624.940203
1665.228514 16.428373 -1628.513587
1629.590440 15.344979 -1609.496979
1628.787477 15.246231 -1613.004952
1605.413994 14.486764 -1603.123311
1604.620686 14.389202 -1606.589165
1593.388261 14.023028 -1601.904004
1592.599517 13.926027 -1605.349889
1591.810736 13.829031 -1608.795533
1580.596576 13.465119 -1604.029753
1579.812479 13.368688 -1607.455409
1579.028383 13.272257 -1610.881065
1578.244269 13.175829 -1614.306601
1567.053401 12.814762 -1609.440038
1545.469344 12.190756 -1596.220624
1544.699088 12.096029 -1599.585732
1543.928832 12.001302 -1602.950841
1543.158595 11.906573 -1606.316070
1532.869872 11.571866 -1601.987512
1532.103820 11.477654 -1605.334313
1500.437230 10.459693 -1591.365430
1499.684298 10.367093 -1594.655004
1489.438196 10.037630 -1590.139941
1479.200584 9.709211 -1585.588002
1478.456125 9.617652 -1588.840580
1477.711665 9.526094 -1592.093158
1467.490999 9.199753 -1587.467225
1466.750706 9.108716 -1590.701254
1466.010432 9.017675 -1593.935403
1456.666991 8.714616 -1589.956907
1455.930523 8.624050 -1593.174168
1455.194074 8.533482 -1596.391549
1454.457727 8.442919 -1599.608791
1734.745669 15.518350 -1625.230433
1733.901988 15.414590 -1628.916468
1721.658715 15.031169 -1624.165711
1708.548830 14.627511 -1618.720714
1695.449682 14.225178 -1613.228616
1694.621763 14.123356 -1616.845779
1693.793827 14.021537 -1620.462822
1692.965908 13.919716 -1624.079985
1680.768379 13.541924 -1619.129397
1679.945468 13.440719 -1622.724671
1679.122558 13.339514 -1626.319944
1678.299508 13.238308 -1629.915115
1666.126952 12.863582 -1624.855458
1665.309049 12.762993 -1628.428841
1629.669498 11.746811 -1609.413787
1628.866535 11.648062 -1612.921761
1605.492106 10.931676 -1603.041116
1604.698798 10.834113 -1606.506970
1593.465918 10.488616 -1601.822287
1592.677174 10.391615 -1605.268172
1591.888393 10.294620 -1608.713816
1580.673779 9.951391 -1603.948514
1579.889682 9.854961 -1607.374170
1579.105586 9.758530 -1610.799826
1567.909599 9.417572 -1605.953850
1567.130150 9.321711 -1609.359277
1545.545184 8.739062 -1596.140819
1544.774928 8.644335 -1599.505927
1544.004672 8.549608 -1602.871036
1543.234435 8.454879 -1606.236265
1532.945295 8.139125 -1601.908146
1532.179244 8.044914 -1605.254946
1500.511366 7.085547 -1591.287418
1490.260662 6.774523 -1586.791222
1489.511915 6.682441 -1590.062368
1488.763150 6.590362 -1593.333393
1478.529428 6.281416 -1588.763445
1477.784968 6.189858 -1592.016023
1467.563885 5.882474 -1587.390528
1466.823593 5.791437 -1590.624557
1466.083319 5.700397 -1593.858706
1447.275551 5.200303 -1581.947231
1446.543390 5.110258 -1585.146045
1445.811228 5.020213 -1588.344858
1723.418640 11.479027 -1616.750525
1722.579967 11.375883 -1620.414669
1721.741294 11.272739 -1624.078814
1708.630880 10.893204 -1618.634375
1695.531201 10.514994 -1613.142835
1694.703283 10.413172 -1616.759998
1693.875346 10.311354 -1620.377041
1693.047428 10.209532 -1623.994204
1680.849406 9.854144 -1619.044134
1680.026495 9.752939 -1622.639407
1679.203585 9.651734 -1626.234681
1678.380535 9.550528 -1629.829852
1666.207487 9.198206 -1624.770713
1642.699529 8.596627 -1610.991212
1641.891558 8.497263 -1614.521075
1629.748556 8.148642 -1609.330596
1628.945594 8.049893 -1612.838569
1605.570218 7.376588 -1602.958921
1604.776910 7.279025 -1606.424775
1603.983621 7.181460 -1609.890750
1603.190331 7.083895 -1613.356725
1591.966051 6.760212 -1608.632099
1580.750981 6.437660 -1603.867275
1579.966885 6.341229 -1607.292931
1579.182789 6.244798 -1610.718587
1567.986347 5.924519 -1605.873089
1567.206899 5.828658 -1609.278516
1545.621024 5.287370 -1596.061014
1544.850768 5.192643 -1599.426123
1544.080512 5.097916 -1602.791231
1543.310275 5.003187 -1606.156460
1533.020719 4.706390 -1601.828779
1532.254667 4.612179 -1605.175580
1501.338434 3.804000 -1587.919832
1500.585502 3.711401 -1591.209406
1490.334381 3.419332 -1586.713648
1489.585635 3.327250 -1589.984794
1488.836869 3.235171 -1593.255820
1488.088225 3.143095 -1596.526826
1477.858271 2.853624 -1591.938887
1477.113812 2.762066 -1595.191465
1458.284803 2.295655 -1583.369686
1457.548456 2.205092 -1586.586929
1447.347643 1.919213 -1581.871371
1438.015502 1.652089 -1577.841550
1437.287147 1.562518 -1581.023475
1436.558792 1.472947 -1584.205400
1724.339892 7.823734 -1612.999483
1723.501219 7.720590 -1616.663628
1722.662547 7.617447 -1620.327773
1709.546215 7.261381 -1614.907322
1708.712929 7.158897 -1618.548036
1695.612720 6.804814 -1613.057054
1694.784802 6.702993 -1616.674217
1693.956865 6.601174 -1620.291260
1681.753325 6.267570 -1615.363477
1680.930433 6.166362 -1618.958871
1680.107522 6.065157 -1622.554144
1679.284612 5.963952 -1626.149418
1667.106027 5.633423 -1621.112445
1666.288022 5.532828 -1624.685968
1665.470119 5.432239 -1628.259351
1629.827615 4.550469 -1609.247405
1629.024652 4.451721 -1612.755378
1605.648329 3.821497 -1602.876725
1604.855021 3.723935 -1606.342580
1604.061732 3.626370 -1609.808555
1603.268443 3.528805 -1613.274529
1592.043708 3.225802 -1608.550382
1591.254964 3.128801 -1611.996267
1580.044088 2.827498 -1607.211692
1579.259992 2.731067 -1610.637348
1568.063096 2.431468 -1605.792328
1567.283647 2.335607 -1609.197755
1544.156352 1.646224 -1602.711427
1543.386115 1.551495 -1606.076656
1542.615841 1.456771 -1609.441644
1532.330090 1.179442 -1605.096213
1531.564122 1.085239 -1608.442754
1501.412570 0.429854 -1587.841820
1500.659638 0.337254 -1591.131394
1499.906706 0.244655 -1594.420969
1489.659354 -0.027939 -1589.907221
1488.910589 -0.120018 -1593.178246
1478.676034 -0.391054 -1588.609174
1477.931574 -0.482612 -1591.861752
1477.187115 -0.574170 -1595.114330
1458.357311 -1.004390 -1583.293388
1457.620964 -1.094953 -1586.510630
1447.419734 -1.361878 -1581.795511
1438.087215 -1.611770 -1577.766088
1437.358860 -1.701340 -1580.948013
1436.630504 -1.790911 -1584.129938
1725.261126 4.168448 -1609.248321
1724.422472 4.065302 -1612.912587
1723.583799 3.962158 -1616.576731
1722.745126 3.859014 -1620.240876
1709.628265 3.527072 -1614.820983
1708.794979 3.424588 -1618.461697
1707.961572 3.322101 -1622.102430
1694.866322 2.992809 -1616.588436
1694.038385 2.890990 -1620.205478
1681.834352 2.579792 -1615.278214
1681.011460 2.478584 -1618.873608
1680.188549 2.377379 -1622.468881
1668.004446 2.068638 -1617.454196
1667.186562 1.968046 -1621.027700
1666.368557 1.867452 -1624.601222
1665.550654 1.766863 -1628.174606
1629.906673 0.952301 -1609.164213
1629.103710 0.853552 -1612.672187
1605.726441 0.266409 -1602.794530
1604.933133 0.168846 -1606.260384
1593.698890 -0.114612 -1601.577135
1592.910146 -0.211612 -1605.023021
1592.121365 -0.308608 -1608.468665
1580.905387 -0.589801 -1603.704797
1580.121291 -0.686232 -1607.130453
1579.337195 -0.782662 -1610.556109
1568.139844 -1.061583 -1605.711567
1567.360396 -1.157444 -1609.116994
1544.232192 -1.805470 -1602.631622
1543.461955 -1.900199 -1605.996851
1542.691681 -1.994923 -1609.361839
1541.921444 -2.089652 -1612.727068
1500.733774 -3.036892 -1591.053383
1490.481820 -3.291049 -1586.558501
1489.733074 -3.383130 -1589.829647
1488.984309 -3.475210 -1593.100672
1478.749337 -3.727288 -1588.532039
1478.004878 -3.818846 -1591.784617
1477.260418 -3.910404 -1595.037195
1458.429819 -4.304437 -1583.217089
1457.693472 -4.395000 -1586.434331
1447.491826 -4.642968 -1581.719650
1446.759664 -4.733013 -1584.918464
1446.027502 -4.823058 -1588.117277
1445.295322 -4.913100 -1591.315970
1725.343705 0.410014 -1609.161425
1724.505051 0.306868 -1612.825690
1723.666378 0.203724 -1616.489835
1722.827706 0.100580 -1620.153979
1709.710314 -0.207235 -1614.734644
1708.877028 -0.309719 -1618.375359
1708.043621 -0.412206 -1622.016092
1694.947841 -0.717373 -1616.502655
1694.119904 -0.819192 -1620.119697
1693.291986 -0.921013 -1623.736861
1680.269577 -1.310401 -1622.383618
1668.084981 -1.596740 -1617.369450
1667.267096 -1.697332 -1620.942954
1655.097561 -1.981827 -1615.863358
1654.284685 -2.081803 -1619.414972
1630.788592 -2.547127 -1605.573188
1629.985731 -2.645870 -1609.081022
1629.182768 -2.744618 -1612.588995
1605.804553 -3.288679 -1602.712335
1605.011245 -3.386242 -1606.178189
1593.776547 -3.649022 -1601.495418
1592.987804 -3.746022 -1604.941303
1592.199023 -3.843018 -1608.386947
1580.982590 -4.103532 -1603.623558
1580.198494 -4.199963 -1607.049214
1579.414398 -4.296394 -1610.474870
1578.630283 -4.392822 -1613.900406
1577.846289 -4.489247 -1617.325923
1566.657575 -4.746358 -1612.441679
1545.078287 -5.162435 -1599.186709
1544.308032 -5.257162 -1602.551817
1543.537795 -5.351891 -1605.917046
1542.767520 -5.446615 -1609.282034
1500.807910 -6.411038 -1590.975371
1490.555540 -6.646240 -1586.480928
1489.806793 -6.738321 -1589.752074
1489.058028 -6.830401 -1593.023099
1488.309384 -6.922477 -1596.294105
1478.078181 -7.155080 -1591.707481
1477.333721 -7.246638 -1594.960059
1458.502327 -7.604483 -1583.140791
1457.765980 -7.695046 -1586.358033
1447.563917 -7.924058 -1581.643790
1446.831755 -8.014103 -1584.842603
1446.099594 -8.104148 -1588.041417
1445.367413 -8.194190 -1591.240109
1725.426285 -3.348420 -1609.074528
1724.587631 -3.451566 -1612.738793
1723.748958 -3.554710 -1616.402938
1722.910285 -3.657854 -1620.067083
1709.792364 -3.941544 -1614.648305
1708.959077 -4.044028 -1618.289020
1708.125671 -4.146515 -1621.929753
1695.029360 -4.427555 -1616.416873
1694.201423 -4.529374 -1620.033916
1681.996406 -4.795768 -1615.107687
1681.173514 -4.896976 -1618.703081
1680.350604 -4.998181 -1622.298355
1668.165516 -5.262118 -1617.284705
1667.347631 -5.362710 -1620.858209
1655.177604 -5.624802 -1615.779131
1654.364727 -5.724777 -1619.330745
1630.867651 -6.145298 -1605.489997
1630.064789 -6.244041 -1608.997831
1629.261827 -6.342789 -1612.505804
1605.882664 -6.843768 -1602.630139
1605.089356 -6.941330 -1606.095994
1593.854204 -7.183431 -1601.413701
1593.065461 -7.280432 -1604.859586
1592.276680 -7.377428 -1608.305230
1581.059793 -7.617262 -1603.542319
1580.275697 -7.713692 -1606.967975
1579.491601 -7.810123 -1610.393631
1578.707486 -7.906552 -1613.819167
1577.923492 -8.002977 -1617.244684
1545.154127 -8.614129 -1599.106904
1544.383872 -8.708856 -1602.472012
1543.613635 -8.803585 -1605.837241
1542.843360 -8.898309 -1609.202229
1511.143408 -9.567893 -1595.354228
1500.882046 -9.785184 -1590.897359
1490.629259 -10.001429 -1586.403354
1489.880513 -10.093511 -1589.674500
1489.131748 -10.185590 -1592.945525
1488.383103 -10.277666 -1596.216532
1478.151484 -10.491314 -1591.630346
1457.838487 -10.995091 -1586.281734
1447.636009 -11.205148 -1581.567930
1446.903847 -11.295193 -1584.766743
1446.171685 -11.385238 -1587.965556
1445.439505 -11.475281 -1591.164249
1725.508864 -7.106853 -1608.987631
1724.670210 -7.210000 -1612.651896
