# .PCD v.7 - Point Cloud Data file format
VERSION .7
FIELDS x y z
SIZE 4 4 4
TYPE F F F
COUNT 1 1 1
WIDTH 1403
HEIGHT 1
POINTS 1403
DATA ascii
1388.435847 68.872319 -657.273470
1365.049197 62.294180 -1050.505029
1349.264469 60.808593 -1083.643000
1355.864549 61.164641 -1090.631195
1496.103513 82.329351 45.755464
1495.492424 82.254202 43.085852
1494.881445 82.179057 40.416318
1492.437197 81.878463 29.737948
1513.264454 83.148817 22.213606
1512.644883 83.072627 19.507057
1389.760046 66.199663 -651.694204
1389.129008 66.122057 -654.451116
1388.497980 66.044449 -657.208089
1365.113791 59.354292 -1050.437057
1349.328760 57.882492 -1083.575347
1355.929144 58.224753 -1090.563223
1496.163678 79.591089 45.818774
1495.552588 79.515940 43.149161
1494.941610 79.440795 40.479628
1505.479183 79.890984 23.823658
1504.862716 79.815173 21.130555
1512.705880 80.296451 19.571243
1439.044046 69.425143 -436.587045
1389.822179 63.371785 -651.628822
1389.191142 63.294179 -654.385734
1388.560114 63.216572 -657.142707
1365.178386 56.414411 -1050.369086
1364.522291 56.333727 -1053.235327
1355.993738 55.284872 -1090.495252
1355.337625 55.204190 -1093.361373
1375.677192 55.591224 -1161.234216
1496.223842 76.852827 45.882084
1503.042053 77.256381 44.322452
1494.390684 76.627383 37.873326
1504.923411 77.052784 21.194423
1439.106180 66.597273 -436.521664
1396.995805 59.927188 -727.971440
1403.981723 60.289218 -733.276834
1358.598890 53.154537 -1043.502060
1365.242980 53.474523 -1050.301114
1364.586886 53.393838 -1053.167356
1356.058333 52.344984 -1090.427280
1375.743112 52.591025 -1161.164850
1493.869631 74.328579 71.224503
1493.261757 74.253813 68.568415
1492.653771 74.179042 65.912249
1496.894985 74.189710 48.614927
1496.284007 74.114565 45.945393
1503.102483 74.506051 44.386041
1502.488649 74.430569 41.704643
1501.874926 74.355091 39.023325
1522.097168 75.436994 28.847186
1521.474983 75.360474 26.128810
1447.114769 64.235735 -437.566393
1397.699188 57.136702 -725.107792
1404.688523 57.485323 -730.399482
1404.045068 57.406201 -733.210178
1403.401742 57.327080 -736.020915
1359.316190 50.308739 -1040.581732
1349.521635 49.104195 -1083.372389
1356.122927 49.405103 -1090.359309
1375.809032 49.590827 -1161.095484
1494.537477 71.678870 73.943661
1493.929492 71.604100 71.287494
1493.321618 71.529334 68.631407
1492.713633 71.454563 65.975240
1492.105638 71.379794 63.319134
1496.955150 71.451448 48.678237
1439.861475 61.019134 -433.633928
1439.230447 60.941527 -436.390900
1446.543064 61.316089 -440.271050
1445.908931 61.238103 -443.041469
1399.042812 54.424956 -719.446973
1398.402461 54.346212 -722.244223
1397.762230 54.267472 -725.041454
1404.751868 54.602310 -730.332826
1404.108413 54.523188 -733.143521
1403.465087 54.444067 -735.954258
1349.585927 46.178101 -1083.304736
1356.187522 46.465215 -1090.291337
1368.442052 46.266851 -1153.193453
1367.776044 46.184939 -1156.103335
1375.205460 46.508294 -1163.950987
1495.205324 69.029165 76.662818
1494.597339 68.954395 74.006652
1493.989354 68.879624 71.350485
1501.292721 69.239220 67.428674
1529.439251 70.209803 24.687999
1528.813951 70.132905 21.956238
1450.998578 61.572921 -250.826498
1450.379122 61.496735 -253.532998
1456.888167 61.825979 -256.445928
1456.265972 61.749460 -259.164243
1440.554646 58.268867 -430.811634
1439.923608 58.191261 -433.568546
1447.239642 58.552418 -437.434992
1399.105854 51.555722 -719.380635
1398.465503 51.476978 -722.177885
1397.825273 51.398238 -724.975116
1403.528432 51.561050 -735.887601
1368.507631 43.282166 -1153.124446
1367.841623 43.200255 -1156.034328
1375.271380 43.508092 -1163.881621
1495.265186 66.304690 76.725809
1494.657201 66.229920 74.069643
1513.010868 66.415582 19.892175
1512.391296 66.339392 17.185627
1451.059575 58.796745 -250.762311
1450.440120 58.720559 -253.468811
1456.949430 59.037740 -256.381463
1447.936211 55.788744 -434.598873
1406.808554 49.073635 -721.767421
1406.165219 48.994515 -724.578098
1405.521884 48.915396 -727.388775
1368.573210 40.297474 -1153.055438
1376.006791 40.590227 -1160.887386
1375.337299 40.507893 -1163.812255
1495.933033 63.654981 79.444967
1495.325048 63.580211 76.788800
1513.071865 63.639409 19.956362
1519.853438 63.977965 18.231788
1451.120573 56.020572 -250.698125
1450.501117 55.944386 -253.404625
1457.010692 56.249504 -256.316997
1399.872159 45.896002 -716.450668
1406.871899 46.190617 -721.700765
1406.228564 46.111498 -724.511442
1405.585229 46.032379 -727.322118
1367.972781 37.230875 -1155.896313
1495.992894 60.930506 79.507958
1495.384909 60.855736 76.851792
1494.776924 60.780966 74.195625
1505.904045 60.554267 24.270732
1505.287578 60.478457 21.577629
1504.671111 60.402646 18.884526
1512.513291 60.787044 17.314000
1519.292384 61.113207 15.577919
1457.694155 53.537787 -253.534247
1457.071955 53.461268 -256.252532
1450.837926 51.026968 -386.504323
1450.206773 50.949358 -389.261284
1399.935201 43.026772 -716.384330
1399.294980 42.948031 -719.181622
1406.291909 43.228481 -724.444785
1405.648574 43.149362 -727.255462
1368.704368 34.328098 -1152.917424
1374.799647 34.425166 -1166.598391
1374.130193 34.342827 -1169.523501
1494.836785 58.056490 74.258616
1494.228800 57.981720 71.602450
1504.731806 57.640257 18.948394
1504.115339 57.564446 16.255291
1457.755417 50.749547 -253.469782
1457.133217 50.673028 -256.188067
1450.900059 48.199094 -386.438942
1450.268906 48.121484 -389.195903
1399.998243 40.157542 -716.317992
1399.358022 40.078800 -719.115284
1398.717672 40.000057 -721.912533
1405.711919 40.266344 -727.188805
1368.769947 31.343409 -1152.848416
1374.865567 31.424967 -1166.529025
1374.196113 31.342628 -1169.454135
1373.526501 31.260291 -1172.379022
1493.680788 55.182475 69.009354
1501.070488 54.951860 34.105811
1500.456663 54.876377 31.424353
1499.842940 54.800899 28.743035
1504.176033 54.802057 16.319158
1451.593225 45.448831 -383.616618
1458.966052 45.747862 -387.239539
1458.332031 45.669880 -390.009878
1399.421065 37.209570 -719.048946
1398.780714 37.130827 -721.846195
1349.861041 29.215596 -1047.548366
1362.479449 29.552041 -1064.088151
1360.511369 29.309999 -1072.686597
1369.501534 28.440632 -1149.869527
1368.835525 28.358721 -1152.779409
1368.169517 28.276810 -1155.689291
1375.600978 28.507103 -1163.534791
1374.931487 28.424769 -1166.459659
1374.262033 28.342430 -1169.384769
1373.592420 28.260092 -1172.309656
1493.132664 52.383230 66.416178
1492.524670 52.308461 63.760072
1500.517092 52.126051 31.487942
1499.903370 52.050573 28.806624
1504.236728 52.039672 16.383026
1451.655359 42.620958 -383.551236
1459.028489 42.906206 -387.173838
1458.394467 42.828224 -389.944178
1399.484107 34.340340 -718.982608
1398.843756 34.261596 -721.779857
1412.827272 34.738267 -732.358138
1349.925030 26.303285 -1047.481032
1356.565637 26.498438 -1054.304109
1363.200138 26.692841 -1061.153938
1362.544043 26.612157 -1064.020180
1361.888051 26.531478 -1066.886282
1361.231938 26.450796 -1069.752403
1369.567113 25.455940 -1149.800519
1377.005964 25.671580 -1157.615428
1376.336390 25.589238 -1160.540557
1520.656552 52.400969 150.628973
1527.582372 52.696804 149.530739
1493.192526 49.658751 66.479169
1500.577522 49.375725 31.551531
1445.339125 39.564594 -379.995281
1451.717492 39.793085 -383.485854
1459.090925 40.064545 -387.108138
1381.875021 31.759709 -657.259010
1387.981516 31.954764 -661.937393
1387.350488 31.877156 -664.694365
1398.906798 31.392366 -721.713520
1405.901954 31.617296 -726.988835
1412.890920 31.841466 -732.291163
1349.989018 23.390971 -1047.413698
1356.629929 23.572340 -1054.236456
1363.264732 23.752957 -1061.085966
1362.608638 23.672272 -1063.952208
1377.071884 22.671382 -1157.546062
1521.327695 49.737852 153.361816
1520.716717 49.662707 150.692283
1527.642802 49.946478 149.594327
1550.709028 50.997993 151.815521
1494.441395 46.431345 35.900183
1493.830315 46.356194 33.230510
1500.637952 46.625400 31.615120
1500.024229 46.549922 28.933802
1451.779626 36.965215 -383.420472
1451.148593 36.887609 -386.177415
1450.517440 36.809999 -388.934376
1381.936889 28.943899 -657.193908
1388.043649 29.126894 -661.872011
1387.412621 29.049287 -664.628984
1398.969840 28.523136 -721.647182
1405.965299 28.734279 -726.922178
1412.954568 28.944662 -732.224187
1350.702911 20.558584 -1044.507135
1356.694221 20.646243 -1054.168804
1363.329327 20.813072 -1061.017995
1377.137804 19.671183 -1157.476696
1521.387860 46.999590 153.425126
1528.316945 47.271632 152.339295
1535.240672 47.543006 151.229852
1550.770290 48.209754 151.879986
1550.148095 48.133234 149.161671
1495.112659 43.768231 38.633044
1494.501560 43.693083 35.963493
1493.890479 43.617932 33.293820
1500.698381 43.875074 31.678709
1500.084658 43.799596 28.997390
1451.841759 34.137342 -383.355091
1451.210726 34.059735 -386.112033
1426.196635 32.226566 -428.198670
1425.571335 32.149667 -430.930430
1424.946030 32.072770 -433.662161
1382.627171 26.205366 -654.383659
1381.998758 26.128090 -657.128805
1388.105783 26.299021 -661.806629
1387.474755 26.221414 -664.563602
1406.028644 25.851262 -726.855522
1413.018216 26.047862 -732.157212
1420.955277 26.278119 -737.798778
1357.411502 17.800450 -1051.248355
1364.049914 17.953867 -1058.083921
1370.429876 16.583784 -1146.683735
1377.873215 16.753319 -1154.482462
1377.203723 16.670985 -1157.407330
1523.892281 44.561920 164.166746
1523.281182 44.486772 161.497194
1522.670214 44.411625 158.827593
1522.059114 44.336477 156.158048
1528.991097 44.596782 155.084202
1535.917833 44.856430 153.986823
1543.915922 45.163240 153.090533
1550.831553 45.421518 151.944451
1550.209358 45.344998 149.226136
1549.587153 45.268480 146.507882
1548.964837 45.191957 143.789548
1493.950644 40.879670 33.357130
1493.339665 40.804525 30.687597
1500.145088 41.049269 29.060979
1499.531365 40.973791 26.379661
1426.258200 29.424541 -428.133886
1425.632900 29.347643 -430.865646
1425.007596 29.270745 -433.597377
1388.798944 23.548755 -658.984275
1388.167916 23.471148 -661.741248
1406.091989 22.968247 -726.788865
1413.081864 23.151057 -732.090236
1421.019266 23.365805 -737.731444
1411.788994 22.992059 -737.738542
1358.128682 14.954652 -1048.328046
1357.475794 14.874353 -1051.180702
1364.114509 15.013982 -1058.015950
1371.161602 13.681004 -1143.704948
1370.495455 13.599092 -1146.614728
1523.952446 41.823656 164.230056
1523.341347 41.748508 161.560504
1522.730379 41.673361 158.890903
1522.119279 41.598213 156.221358
1529.051527 41.846456 155.147790
1535.978528 42.094042 154.050690
1535.362061 42.018232 151.357587
1550.892815 42.633280 152.008917
1550.270620 42.556760 149.290602
1549.648416 42.480242 146.572347
1549.026100 42.403720 143.854014
1486.136223 37.863612 34.857457
1494.010808 38.141406 33.420440
1493.399830 38.066261 30.750907
1500.205518 38.298943 29.124568
1499.591795 38.223465 26.443250
1498.978072 38.147987 23.761932
1498.364359 38.072508 21.080553
1426.945070 26.699416 -425.337371
1426.319766 26.622518 -428.069102
1433.019434 26.755833 -434.638578
1432.391151 26.678558 -437.383766
1406.155334 20.085229 -726.722208
1421.733158 20.533418 -734.824881
1421.083254 20.453494 -737.664110
1358.192974 12.028553 -1048.260393
1364.835216 12.154781 -1055.081857
1364.179103 12.074099 -1057.947978
1371.227181 10.696316 -1143.635940
1370.561034 10.614404 -1146.545721
1524.012610 39.085394 164.293366
1523.401511 39.010246 161.623814
1530.339403 39.247088 160.574008
1529.725679 39.171611 157.892697
1529.111956 39.096133 155.211379
1536.039223 39.331653 154.114558
1535.422756 39.255842 151.421455
1543.418466 39.534705 150.512376
1542.798895 39.458515 147.805827
1549.709678 39.692006 146.636812
1549.087362 39.615484 143.918479
1548.465287 39.538967 141.200183
1493.459994 35.327999 30.814216
1492.848904 35.252849 28.144604
1499.652224 35.473142 26.506839
1499.038502 35.397664 23.825521
1498.424788 35.322185 21.144142
1505.217363 35.541151 19.459335
1419.046625 23.622927 -424.207276
1418.424425 23.546409 -426.925561
1417.180030 23.393370 -432.362160
1432.453019 23.862751 -437.318663
1421.797147 17.621105 -734.757547
1358.910274 9.182758 -1045.340065
1358.257265 9.102455 -1048.192740
1364.899811 9.214897 -1055.013886
1370.626613 7.629716 -1146.476713
1538.378534 37.477992 195.495157
1537.764820 37.402513 192.813779
1537.151107 37.327034 190.132400
1536.537263 37.251553 187.451064
1532.241111 36.723201 168.681637
1531.627388 36.647723 166.000319
1531.013666 36.572245 163.319001
1530.399833 36.496763 160.637597
1537.332731 36.720882 159.564613
1536.716384 36.645075 156.871528
1536.099917 36.569264 154.178426
1535.483450 36.493453 151.485323
1543.479464 36.758531 150.576562
1550.393145 36.980287 149.419532
1494.131137 32.664882 33.547060
1493.520159 32.589737 30.877526
1499.712654 32.722816 26.570427
1491.687001 32.364293 22.868769
1491.075902 32.289145 20.199217
1497.871374 32.496378 18.526394
1414.001338 20.835165 -415.091257
1413.381766 20.758975 -417.797805
1419.730083 20.911209 -421.424496
1419.107888 20.834690 -424.142811
1418.485688 20.758171 -426.861096
1417.863493 20.681651 -429.579410
1417.241293 20.605132 -432.297695
1432.514887 21.046941 -437.253561
1421.861136 14.708793 -734.690213
1360.280564 6.417269 -1039.566941
1359.627556 6.336966 -1042.419617
1358.974565 6.256661 -1045.272412
1358.321557 6.176358 -1048.125088
1539.052686 34.803144 198.240064
1538.438963 34.727666 195.558746
1537.825250 34.652187 192.877367
1544.790659 34.868215 191.945720
1536.597693 34.501227 187.514652
1532.301541 33.972875 168.745226
1531.687818 33.897397 166.063908
1538.626360 34.110116 165.014686
1538.009894 34.034305 162.321576
1537.393425 33.958495 159.628480
1536.777079 33.882687 156.935396
1536.160612 33.806877 154.242293
1544.159912 34.058543 153.347279
1551.076603 34.268568 152.202313
1485.323866 30.849373 93.437884
1484.721369 30.775268 90.805287
1491.601046 30.980750 89.499008
1490.995796 30.906314 86.854687
1490.390435 30.831873 84.210287
1491.747165 29.626029 22.932078
1491.136066 29.550881 20.262527
1497.931804 29.746052 18.589983
1414.062335 18.058990 -415.027070
1413.442764 17.982801 -417.733619
1419.791346 18.122971 -421.360031
1419.169150 18.046452 -424.078346
1418.546950 17.969933 -426.796630
1417.924755 17.893414 -429.514945
1417.302555 17.816895 -432.233230
1432.576756 18.231131 -437.188458
1446.845476 18.613228 -442.055962
1421.925125 11.796480 -734.622879
1360.344856 3.491169 -1039.499289
1366.997080 3.577170 -1046.279497
1366.341087 3.496491 -1049.145599
1365.684993 3.415807 -1052.011840
1539.113116 32.052819 198.303653
1538.499393 31.977341 195.622335
1545.467821 32.181636 194.702690
1544.851354 32.105826 192.009587
1544.234887 32.030015 189.316484
1543.618540 31.954207 186.623400
1543.002073 31.878397 183.930297
1540.536325 31.575157 173.157904
1539.919868 31.499345 170.464741
1539.303401 31.423535 167.771638
1538.687054 31.347727 165.078554
1546.698946 31.587123 164.237683
1546.079495 31.510936 161.531153
1545.460044 31.434750 158.824623
1551.137866 31.480331 152.266778
1485.383197 28.149021 93.500317
1484.780700 28.074916 90.867720
1491.660643 28.268337 89.561721
1491.055393 28.193901 86.917399
1490.450031 28.119460 84.272999
1420.474924 15.411256 -418.577232
1426.566027 15.414425 -427.809965
1425.940728 15.337527 -430.541726
1425.315423 15.260629 -433.273457
1432.638624 15.415321 -437.123355
1446.907912 15.771569 -441.990262
1367.717788 0.717968 -1043.345404
1367.061674 0.637286 -1046.211525
1366.405682 0.556607 -1049.077627
1373.961281 0.646653 -1056.392122
1376.929667 -1.412549 -1159.916263
1384.361312 -1.337768 -1167.773246
1383.688254 -1.420533 -1170.713361
1546.761440 29.570871 200.152824
1546.144973 29.495061 197.459721
1545.528515 29.419249 194.766558
1544.912048 29.343438 192.073455
1552.955177 29.572833 191.367282
1552.335607 29.496643 188.660725
1551.716034 29.420454 185.954184
1551.096583 29.344267 183.247654
1549.237997 29.115700 175.127974
1539.980562 28.736958 170.528609
1539.364095 28.661147 167.835506
1538.747749 28.585340 165.142422
1546.759943 28.810948 164.301869
1546.140492 28.734761 161.595339
1551.199128 28.692094 152.331243
1485.442529 25.448670 93.562750
1484.840032 25.374565 90.930153
1484.237415 25.300458 88.297538
1491.114989 25.481487 86.980112
1490.509628 25.407046 84.335711
1489.904387 25.332609 81.691330
1426.627593 12.612401 -427.745181
1426.002293 12.535502 -430.476942
1447.604481 13.007897 -439.154143
1446.970349 12.929911 -441.924561
1361.126327 -2.280727 -1036.511327
1367.126269 -2.302598 -1046.143554
1366.470276 -2.383277 -1049.009656
1370.222902 -4.390950 -1149.110445
1377.665162 -4.330406 -1156.921768
1385.100529 -4.270718 -1164.763546
1384.427573 -4.353477 -1167.703522
1391.852425 -4.295067 -1175.590638
1546.822135 26.808482 200.216692
1546.205668 26.732672 197.523589
1545.589210 26.656860 194.830426
1553.635625 26.872846 194.137998
1553.016174 26.796659 191.431468
1552.396604 26.720469 188.724912
1551.777031 26.644279 186.018371
1551.157580 26.568093 183.311841
1550.538129 26.491906 180.605311
1549.918567 26.415715 177.898702
1549.298994 26.339526 175.192160
1548.679544 26.263339 172.485623
1548.059973 26.187149 169.779074
1547.440522 26.110962 167.072544
1546.820941 26.034774 164.366056
1478.013412 22.504254 92.274398
1477.413539 22.430478 89.653568
1484.296746 22.600107 88.359971
1426.063859 9.733479 -430.412158
1447.666917 10.166239 -439.088442
1447.032785 10.088252 -441.858861
1362.496618 -5.046216 -1030.738203
1361.843628 -5.126522 -1033.590999
1361.190619 -5.206824 -1036.443674
1370.954508 -7.293729 -1146.131676
1370.288481 -7.375638 -1149.041438
1377.731081 -7.330604 -1156.852403
1385.166789 -7.286425 -1164.693822
1384.493833 -7.369184 -1167.633797
1391.919026 -7.326284 -1175.520555
1555.555217 24.325238 202.321812
1554.935646 24.249048 199.615263
1554.316074 24.172858 196.908715
1553.696623 24.096671 194.202185
1553.077172 24.020485 191.495654
1552.457602 23.944295 188.789098
1551.838029 23.868105 186.082557
1551.218578 23.791919 183.376027
1550.599127 23.715732 180.669497
1549.979565 23.639541 177.962888
1478.072478 19.815966 92.336553
1477.472605 19.742191 89.715722
1484.356078 19.899756 88.422405
1447.729354 7.324581 -439.022742
1447.095221 7.246594 -441.793160
1398.960031 -0.247910 -723.781033
1405.955424 -0.175008 -729.066349
1362.560909 -7.972315 -1030.670550
1361.907919 -8.052620 -1033.523346
1374.815665 -8.138420 -1053.305904
1371.020087 -10.278419 -1146.062669
1370.354060 -10.360327 -1148.972431
1377.797001 -10.330802 -1156.783037
1385.233050 -10.302132 -1164.624097
1384.560094 -10.384892 -1167.564073
1391.985627 -10.357502 -1175.450472
1555.616215 21.549063 202.385998
1554.996643 21.472873 199.679450
1554.377072 21.396683 196.972901
1478.131545 17.127678 92.398707
1477.531672 17.053902 89.777877
1447.157658 4.404936 -441.727460
1446.523516 4.326951 -444.497818
1399.023073 -3.117141 -723.714695
1406.018769 -3.058024 -728.999692
1370.419639 -13.345017 -1148.903423
1377.862921 -13.331001 -1156.713671
1377.193346 -13.413343 -1159.638799
1384.626354 -13.400600 -1167.494348
1392.052229 -13.388719 -1175.380389
1391.375808 -13.471904 -1178.335471
1478.190611 14.439390 92.460862
1477.590738 14.365614 89.840031
1484.474741 14.499054 88.547271
1439.904211 1.478603 -437.774797
1447.220094 1.563277 -441.661759
1399.086115 -5.986372 -723.648357
1406.082114 -5.941041 -728.933035
1362.689492 -13.824511 -1030.535245
1362.036502 -13.904816 -1033.388040
1370.485218 -16.329706 -1148.834416
1369.819210 -16.411617 -1151.744298
1377.259266 -16.413541 -1159.569433
1384.692614 -16.416308 -1167.424623
1392.118830 -16.419936 -1175.310306
1391.442409 -16.503121 -1178.265388
1478.249678 11.751102 92.523016
1477.649805 11.677326 89.902186
1484.534072 11.798703 88.609705
1439.966344 -1.349270 -437.709415
1447.282530 -1.278381 -441.596059
1399.789388 -8.776862 -720.784788
1406.788785 -8.744937 -726.055642
1406.145459 -8.824058 -728.866379
1362.753784 -16.750609 -1030.467592
1362.100794 -16.830915 -1033.320388
1361.447785 -16.911218 -1036.173063
1360.794897 -16.991518 -1039.025719
1375.010470 -17.004601 -1053.100914
1374.350892 -17.085708 -1055.982141
1369.884789 -19.396306 -1151.675291
1369.218781 -19.478218 -1154.585173
1376.655694 -19.496074 -1162.424935
1384.085817 -19.514781 -1170.295013
1383.412879 -19.597543 -1173.235109
1550.322304 11.809633 147.281466
1485.798518 9.246565 93.937350
1485.196021 9.172460 91.304754
1492.077819 9.281441 90.000706
1491.472569 9.207004 87.356385
1497.130265 9.165451 80.704790
1497.116866 8.321110 44.795219
1440.028478 -4.177142 -437.644033
1439.397450 -4.254749 -440.401006
1399.852430 -11.646093 -720.718451
1406.852130 -11.627954 -725.988985
1406.208804 -11.707075 -728.799722
1413.199200 -11.690074 -734.110654
1354.848116 -19.814165 -1029.368090
1358.900181 -20.158527 -1047.516213
1369.950368 -22.380996 -1151.606283
1369.284360 -22.462907 -1154.516166
1376.721614 -22.496273 -1162.355569
1384.152077 -22.530489 -1170.225289
1383.479140 -22.613251 -1173.165385
1493.348018 6.717905 95.352201
1492.742657 6.643464 92.707800
1492.137416 6.569027 90.063419
1491.532165 6.494590 87.419097
1490.926804 6.420150 84.774697
1497.798121 6.515743 83.423887
1499.010188 5.808291 52.867286
1498.399099 5.733142 50.197674
1497.788120 5.657997 47.528141
1497.177030 5.582848 44.858529
1438.828546 -7.160228 -443.092537
1438.197397 -7.237838 -445.849528
1400.555823 -14.436580 -717.854863
1399.915472 -14.515323 -720.652113
1406.915475 -14.510971 -725.922328
1406.272149 -14.590091 -728.733065
1413.262847 -14.586877 -734.043679
1373.821306 -23.077600 -1058.726690
1369.349939 -25.447596 -1154.447158
1376.118042 -25.578806 -1165.211072
1375.448588 -25.661144 -1168.136182
1374.778976 -25.743482 -1171.061069
1493.407615 4.005491 95.414913
1492.802253 3.931050 92.770513
1492.197012 3.856613 90.126131
1499.073963 3.940806 88.799151
1499.681452 3.145177 55.600148
1499.070353 3.070029 52.930596
1498.459263 2.994880 50.260984
1438.890679 -9.988100 -443.027155
1438.259531 -10.065710 -445.784146
1389.668812 -16.041457 -658.068931
1389.037784 -16.119065 -660.825904
1399.978514 -17.384554 -720.585775
1406.978820 -17.393987 -725.855672
1406.335494 -17.473108 -728.666409
1413.326495 -17.483680 -733.976703
1344.158270 -25.990059 -1036.160541
1370.081526 -28.350374 -1151.468269
1369.415518 -28.432285 -1154.378151
1382.938723 -28.727429 -1175.966031
1494.072443 1.367516 98.122067
1493.467211 1.293078 95.477625
1492.861850 1.218637 92.833225
1499.133825 1.216330 88.862142
1499.741617 0.406914 55.663458
1499.130518 0.331766 52.993906
1498.519428 0.256617 50.324294
1456.553141 -8.109512 -262.989209
1438.952813 -12.815972 -442.961773
1438.321664 -12.893583 -445.718764
1389.730945 -18.869330 -658.003549
1389.099917 -18.946937 -660.760522
1399.401326 -20.332525 -723.316668
1406.398839 -20.356125 -728.599752
1405.755384 -20.435247 -731.410447
1332.812391 -28.521710 -1014.232428
1332.172040 -28.600453 -1017.029678
1331.531828 -28.679196 -1019.827030
1330.891477 -28.757939 -1022.624279
1330.251247 -28.836679 -1025.421510
1370.147105 -31.335063 -1151.399261
1383.004984 -31.743137 -1175.896307
1548.608950 1.201579 170.356752
1547.989499 1.125392 167.650222
1494.132040 -1.344898 98.184779
1491.897937 -2.405382 57.051456
1499.801781 -2.331348 55.726768
1499.190682 -2.406496 53.057216
1498.579592 -2.481646 50.387604
1456.614403 -10.897749 -262.924744
1383.678934 -21.663394 -653.276911
1383.050520 -21.740670 -656.022057
1382.422236 -21.817945 -658.767245
1399.464368 -23.201755 -723.250330
1406.462184 -23.239141 -728.533095
1332.875433 -31.390939 -1014.166090
1332.235082 -31.469682 -1016.963340
1331.594870 -31.548425 -1019.760692
1330.954519 -31.627168 -1022.557941
1330.314289 -31.705909 -1025.355172
1370.212684 -34.319751 -1151.330254
1383.071244 -34.758844 -1175.826582
1548.050497 -1.650783 167.714408
1546.811465 -1.803158 162.301390
1491.957799 -5.129859 57.114447
1499.861946 -5.069611 55.790078
1499.250847 -5.144759 53.120526
1498.639757 -5.219909 50.450914
1464.196408 -13.672889 -265.859589
1383.740802 -24.479204 -653.211808
1383.112388 -24.556480 -655.956954
1382.484105 -24.633755 -658.702142
1381.855700 -24.711032 -661.447348
1398.887068 -26.149731 -725.981302
1332.298124 -34.338914 -1016.897002
1331.657912 -34.417656 -1019.694354
1331.017561 -34.496400 -1022.491603
1330.377331 -34.575140 -1025.288834
1370.278263 -37.304442 -1151.261246
1383.137504 -37.774552 -1175.756858
1547.491914 -4.503146 165.072106
1546.872463 -4.579332 162.365576
1546.253012 -4.655519 159.659046
1545.633440 -4.731709 156.952498
1492.017660 -7.854334 57.177438
1499.922110 -7.807873 55.853388
1499.311011 -7.883021 53.183836
1498.699921 -7.958171 50.514224
1456.114733 -16.550743 -265.514128
1455.492533 -16.627261 -268.232413
1427.366378 -21.011879 -426.967772
1426.741079 -21.088777 -429.699533
1434.071197 -21.112927 -433.531831
1377.343928 -27.163698 -645.507368
1376.718628 -27.240596 -648.239129
1376.093328 -27.317495 -650.970889
1375.468028 -27.394393 -653.702650
1382.545973 -27.449564 -658.637039
1388.655290 -27.508160 -663.321350
1398.950111 -29.018961 -725.914964
1370.343842 -40.289130 -1151.192239
1383.203765 -40.790259 -1175.687133
1547.552911 -7.279320 165.136293
1546.933460 -7.355506 162.429763
1546.314009 -7.431693 159.723233
1498.765276 -9.756346 86.458001
1498.157291 -9.831116 83.801834
1497.549297 -9.905885 81.145728
1492.077522 -10.578811 57.240430
1491.469537 -10.653582 54.584263
1499.371176 -10.621285 53.247146
1498.760086 -10.696435 50.577533
1456.175996 -19.338980 -265.449663
1455.553796 -19.415499 -268.167947
1427.427944 -23.813902 -426.902988
1426.802644 -23.890800 -429.634749
1434.133065 -23.928737 -433.466728
1369.689528 -29.975179 -643.294057
1369.067332 -30.051699 -646.012372
1376.154894 -30.119518 -650.906105
1375.529594 -30.196416 -653.637866
1382.607841 -30.265374 -658.571936
1381.979437 -30.342652 -661.317143
1381.351033 -30.419929 -664.062349
1377.852543 -43.415328 -1158.945139
1376.513560 -43.579997 -1164.794876
1383.270025 -43.805968 -1175.617409
1548.233490 -9.979305 167.906968
1493.159833 -12.343431 93.146786
1492.554592 -12.417869 90.502404
1491.949341 -12.492305 87.858083
1498.217153 -12.555593 83.864825
1497.609158 -12.630362 81.208719
1504.930824 -12.683217 77.336669
1491.529398 -13.378059 54.647254
1490.921413 -13.452829 51.991088
1456.237258 -22.127218 -265.385197
1455.615058 -22.203737 -268.103482
1427.489509 -26.615926 -426.838204
1434.194933 -26.744547 -433.401625
1368.506400 -32.916456 -648.666222
1367.884204 -32.992975 -651.384537
1374.965859 -33.075339 -656.304843
1382.041305 -33.158462 -661.252040
1381.412901 -33.235739 -663.997246
1369.808991 -46.340419 -1153.964107
1377.248971 -46.497861 -1161.800642
1376.579480 -46.580195 -1164.725510
1375.910026 -46.662534 -1167.650620
1383.336286 -46.821675 -1175.547684
1550.152959 -12.526916 176.090770
1548.294487 -12.755480 167.971154
1485.730005 -15.130697 91.866654
1485.127388 -15.204805 89.234038
1492.008938 -15.204721 87.920795
1498.885000 -15.205300 86.583983
1498.277014 -15.280070 83.927816
1497.669020 -15.354839 81.271710
1505.602069 -15.346328 80.069651
1504.990988 -15.421479 77.399978
1491.589260 -16.102536 54.710245
1490.981275 -16.177306 52.054079
1457.542916 -24.762416 -259.884132
1456.920716 -24.838935 -262.602417
1456.298521 -24.915454 -265.320732
1455.676321 -24.991973 -268.039017
1368.567662 -35.704692 -648.601756
1367.945467 -35.781211 -651.320071
1375.027425 -35.877362 -656.240058
1382.103174 -35.974269 -661.186937
1388.210532 -36.069388 -665.882135
1369.874570 -49.325108 -1153.895099
1369.208423 -49.407020 -1156.804880
1376.645400 -49.580392 -1164.656144
1375.975945 -49.662731 -1167.581254
1383.402546 -49.837382 -1175.477960
1550.213957 -15.303091 176.154957
1549.594507 -15.379277 173.448419
1548.974936 -15.455467 170.741871
1548.355485 -15.531654 168.035341
1485.186719 -17.905157 89.296472
1492.068535 -17.917134 87.983508
1498.944861 -17.929775 86.646974
1498.336876 -18.004545 83.990808
1497.728881 -18.079314 81.334701
1492.257107 -18.752240 57.429403
1369.251120 -38.416410 -645.818976
1368.628925 -38.492929 -648.537291
1368.006729 -38.569449 -651.255606
1375.088990 -38.679385 -656.175274
1382.165042 -38.790079 -661.121834
1388.272665 -38.897259 -665.816754
1405.555473 -40.695485 -733.754588
1369.940149 -52.309796 -1153.826092
1369.274002 -52.391708 -1156.735872
1376.711319 -52.580593 -1164.586778
1384.141745 -52.770329 -1172.468139
1383.468807 -52.853091 -1175.408235
1552.133541 -17.850700 184.338824
1551.514090 -17.926886 181.632293
1550.894527 -18.003077 178.925685
1493.943984 -20.406233 95.979323
1493.338622 -20.480674 93.334923
1492.733381 -20.555111 90.690541
1492.128131 -20.629548 88.046220
1499.004723 -20.654254 86.709965
1498.396738 -20.729024 84.053799
1506.333488 -20.747705 82.865883
1492.924954 -21.401949 60.148561
1492.316968 -21.476719 57.492394
1500.307523 -22.359174 25.160885
1499.693809 -22.434654 22.479507
1499.079966 -22.510135 19.798170
1369.934578 -41.128126 -643.036196
1369.312383 -41.204646 -645.754511
1368.690187 -41.281165 -648.472826
1375.775856 -41.404511 -653.378730
1375.150556 -41.481410 -656.110490
1382.226910 -41.605889 -661.056732
1388.334799 -41.725132 -665.751372
1406.262144 -43.499380 -730.877194
1405.618818 -43.578500 -733.687931
1344.731102 -52.061286 -1035.557762
1369.339581 -55.376400 -1156.666865
1376.777239 -55.580791 -1164.517412
1376.107785 -55.663130 -1167.442522
1383.535067 -55.868800 -1175.338510
1552.194538 -20.626872 184.403010
1551.575087 -20.703059 181.696480
1550.955525 -20.779249 178.989871
1498.456599 -23.453499 84.116790
1497.848605 -23.528268 81.460684
1497.240619 -23.603039 78.804517
1485.529585 -24.160787 59.020720
1492.376830 -24.201194 57.555385
1491.768845 -24.275965 54.899219
1500.981675 -25.034022 27.905792
1500.367952 -25.109500 25.224474
1499.754239 -25.184979 22.543096
1499.140395 -25.260460 19.861759
1370.618036 -43.839847 -640.253416
1369.995840 -43.916366 -642.971731
1369.373645 -43.992886 -645.690046
1368.751450 -44.069405 -648.408360
1375.837421 -44.206534 -653.313946
1382.917183 -44.344421 -658.246422
1382.288779 -44.421699 -660.991629
1388.396932 -44.553006 -665.685990
1406.325489 -46.382397 -730.810537
1405.682163 -46.461517 -733.621275
1370.071307 -58.279176 -1153.688077
1369.405160 -58.361088 -1156.597857
1376.843159 -58.580990 -1164.448046
1384.274266 -58.801743 -1172.328690
1383.601328 -58.884505 -1175.268786
1551.636085 -23.479235 181.760666
1497.908466 -26.252743 81.523675
1497.300481 -26.327514 78.867508
1493.652671 -26.776130 62.930649
1493.044677 -26.850899 60.274543
1501.655827 -27.708870 30.650699
1501.042104 -27.784348 27.969381
1500.428382 -27.859826 25.288063
1507.229806 -27.917971 23.621395
1370.679298 -46.628083 -640.188951
1370.057103 -46.704602 -642.907265
1369.434908 -46.781121 -645.625580
1376.524286 -46.931658 -650.517401
1375.898986 -47.008557 -653.249162
1382.979052 -47.160231 -658.181320
1382.350647 -47.237508 -660.926526
1388.459066 -47.380875 -665.620608
1406.388834 -49.265414 -730.743881
1405.745508 -49.344535 -733.554618
1344.858397 -57.854890 -1035.423811
1344.211958 -57.934388 -1038.247934
1370.136886 -61.263865 -1153.619070
1369.470739 -61.345776 -1156.528850
1376.909079 -61.581188 -1164.378680
1383.667588 -61.900214 -1175.199061
1552.935984 -26.103034 187.237913
1552.316533 -26.179220 184.531383
1551.697082 -26.255407 181.824853
1493.712533 -29.500609 62.993640
1501.716257 -30.459196 30.714288
1501.102534 -30.534673 28.032970
1507.906968 -30.604549 26.378365
1370.740561 -49.416318 -640.124485
1370.118365 -49.492838 -642.842800
1369.496170 -49.569357 -645.561115
1376.585852 -49.733681 -650.452617
1375.960552 -49.810580 -653.184377
1383.040920 -49.976041 -658.116217
1382.412516 -50.053318 -660.861423
1388.521199 -50.208749 -665.555227
1413.443841 -52.324811 -735.997181
1405.165519 -52.306671 -736.298638
1344.275606 -60.831189 -1038.180959
1370.202465 -64.248553 -1153.550062
1377.644490 -64.499053 -1161.384446
1376.974998 -64.581387 -1164.309314
1383.733849 -64.915923 -1175.129337
1553.616554 -28.803020 190.008640
1552.996982 -28.879210 187.302099
1552.377531 -28.955396 184.595569
1551.758080 -29.031583 181.889039
1546.182418 -29.717278 157.530176
1494.964107 -33.128570 32.396964
1501.776686 -33.209521 30.777877
1508.584009 -33.291127 29.135317
1507.967662 -33.366935 26.442233
1507.351195 -33.442745 23.749130
1370.801823 -52.204558 -640.060020
1370.179628 -52.281078 -642.778335
1377.272717 -52.458805 -647.656072
1376.647417 -52.535704 -650.387833
1383.731072 -52.714576 -655.305926
1383.102788 -52.791850 -658.051114
1389.214490 -52.959013 -662.732914
1388.583332 -53.036622 -665.489845
1414.153919 -55.142116 -733.106023
1413.507489 -55.221615 -735.930206
1370.934052 -67.151334 -1150.571173
1378.379901 -67.416917 -1158.390211
1377.710410 -67.499251 -1161.315080
1383.800109 -67.931631 -1175.059612
1553.677552 -31.579192 190.072827
1553.057979 -31.655382 187.366286
1552.438528 -31.731569 184.659756
1546.243415 -32.493451 157.594362
1495.656221 -34.725253 71.088062
1495.048236 -34.800024 68.431895
1494.440242 -34.874793 65.775789
1495.635250 -35.791687 35.129807
1495.024272 -35.866832 32.460274
1501.837116 -35.959847 30.841465
1508.644703 -36.053516 29.199185
1508.028357 -36.129324 26.506101
1507.411890 -36.205134 23.812998
1506.795423 -36.280945 21.119895
1385.678042 -55.298557 -647.005283
1385.049638 -55.375835 -649.750489
1400.220873 -57.632521 -722.454275
1399.580532 -57.711266 -725.251585
1414.217567 -58.038920 -733.039047
1413.571136 -58.118419 -735.863230
1344.402902 -66.624797 -1038.047008
1351.972668 -66.890702 -1045.326345
1370.999631 -70.136022 -1150.502165
1378.445821 -70.417115 -1158.320845
1383.866370 -70.947336 -1174.989888
1545.691557 -34.267305 190.849309
1545.075211 -34.343112 188.156225
1553.118977 -34.431558 187.430472
1546.304413 -35.269627 157.658548
1495.108098 -37.524499 68.494886
1494.500103 -37.599268 65.838780
1495.695415 -38.529949 35.193117
1495.084436 -38.605094 32.523584
1501.897546 -38.710172 30.905054
1508.705398 -38.815905 29.263053
1508.089051 -38.891713 26.569969
1507.472584 -38.967524 23.876866
1515.328773 -39.079046 22.331260
1514.709202 -39.155236 19.624711
1400.283916 -60.501752 -722.387937
1406.642214 -60.797479 -730.477254
1413.634784 -61.015220 -735.796255
1352.036657 -69.803016 -1045.259011
1371.065210 -73.120710 -1150.433158
1383.932630 -73.963045 -1174.920163
1545.752252 -37.029694 190.913177
1545.135906 -37.105502 188.220092
1553.179974 -37.207734 187.494659
1552.560523 -37.283921 184.788129
1494.559965 -40.323743 65.901771
1495.755579 -41.268211 35.256427
1495.144601 -41.343356 32.586893
1501.957975 -41.460494 30.968643
1508.766092 -41.578295 29.326921
1508.149746 -41.654102 26.633836
1507.533279 -41.729913 23.940733
1506.916812 -41.805724 21.247630
1506.300345 -41.881534 18.554528
1400.987188 -63.292242 -719.524368
1400.346958 -63.370982 -722.321599
1406.705559 -63.680497 -730.410597
1413.698432 -63.912024 -735.729280
1371.130789 -76.105398 -1150.364150
1383.998891 -76.978754 -1174.850439
1546.429414 -39.716272 193.670147
1553.240972 -39.983907 187.558845
1552.621521 -40.060093 184.852315
1494.619826 -43.048222 65.964762
1487.932072 -43.870688 36.747191
1495.815744 -44.006473 35.319737
1495.204765 -44.081618 32.650203
1502.018405 -44.210820 31.032232
1501.404682 -44.286298 28.350914
1500.790959 -44.361776 25.669596
1507.593974 -44.492302 24.004601
1506.977506 -44.568113 21.311498
1506.361039 -44.643923 18.618395
1460.022132 -52.415230 -251.084565
1459.399932 -52.491749 -253.802850
1458.777737 -52.568269 -256.521164
1458.155542 -52.644788 -259.239479
1465.058325 -52.901216 -264.952612
1401.690581 -66.082729 -716.660780
1401.050230 -66.161472 -719.458030
1400.410000 -66.240212 -722.255261
1407.412360 -66.484391 -727.533245
1406.768904 -66.563514 -730.343941
1413.762080 -66.808828 -735.662304
1358.815844 -75.914997 -1051.936263
1358.162835 -75.995300 -1054.788938
1371.196368 -79.090087 -1150.295143
1384.065151 -79.994459 -1174.780714
1547.106575 -42.402847 196.427118
1546.490108 -42.478658 193.734015
1495.875909 -46.744735 35.383046
1495.264930 -46.819880 32.713513
1502.078834 -46.961146 31.095821
1501.465111 -47.036623 28.414502
1500.851389 -47.112101 25.733184
1500.237675 -47.187580 23.051806
1499.623832 -47.263061 20.370469
1459.461195 -55.279989 -253.738384
1458.838999 -55.356508 -256.456699
1458.216804 -55.433028 -259.175014
1457.594604 -55.509547 -261.893299
1465.119890 -55.703238 -264.887827
1395.376021 -68.617142 -708.586658
1394.738774 -68.695506 -711.370462
1401.753623 -68.951959 -716.594442
1401.113272 -69.030702 -719.391692
1408.119030 -69.288288 -724.655851
1407.475705 -69.367409 -727.466589
1423.066904 -69.828182 -735.576756
1422.417009 -69.908108 -738.416046
1358.227127 -78.921398 -1054.721286
1363.807344 -81.732502 -1142.439122
1371.261947 -82.074779 -1150.226136
1384.131412 -83.010168 -1174.710989
1548.400195 -45.013614 201.877252
1547.783728 -45.089425 199.184149
1547.167270 -45.165236 196.490985
1546.550803 -45.241047 193.797883
1487.443819 -49.394409 34.216947
1486.835825 -49.469179 31.560841
1502.139264 -49.711471 31.159409
1501.525541 -49.786949 28.478091
1508.331830 -49.941266 26.825439
1507.715363 -50.017077 24.132336
1453.002015 -57.878766 -250.772981
1452.382444 -57.954956 -253.479530
1451.762998 -58.031143 -256.186090
1458.278067 -58.221264 -259.110549
1465.181455 -58.505261 -264.823043
1395.438760 -71.472585 -708.520639
1394.801513 -71.550949 -711.304443
1401.816665 -71.821193 -716.528104
1401.176314 -71.899936 -719.325354
1408.182375 -72.171305 -724.589195
1407.539050 -72.250426 -727.399932
1423.130893 -72.740493 -735.509422
1422.480998 -72.820418 -738.348712
1357.972895 -84.294255 -1132.273197
1364.535144 -84.620196 -1139.475818
1363.872582 -84.701680 -1142.370473
1371.327526 -85.059463 -1150.157128
1378.775419 -85.418108 -1157.974016
1384.870610 -85.943115 -1171.701169
1384.197672 -86.025877 -1174.641265
1548.460889 -47.776003 201.941119
1547.844422 -47.851814 199.248016
1547.227965 -47.927626 196.554853
1487.503681 -52.118888 34.279938
1495.385259 -52.296408 32.840133
1502.199693 -52.461797 31.222998
1501.585971 -52.537275 28.541680
1508.392524 -52.703655 26.889307
1507.776057 -52.779466 24.196204
1507.159590 -52.855277 21.503101
1453.063013 -60.654942 -250.708795
1452.443441 -60.731132 -253.415344
1451.823995 -60.807319 -256.121904
1458.339329 -61.009503 -259.046083
1457.717129 -61.086022 -261.764368
1465.243021 -61.307284 -264.758259
1384.164151 -72.425244 -654.850206
1383.535867 -72.502519 -657.595394
1389.649424 -72.754114 -662.275242
1395.501499 -74.328028 -708.454620
1394.864253 -74.406393 -711.238424
1401.879708 -74.690423 -716.461766
1401.239357 -74.769167 -719.259016
1408.245720 -75.054319 -724.522538
1407.602395 -75.133439 -727.333275
1423.194882 -75.652808 -735.442088
1413.953024 -75.499237 -735.461378
1358.037830 -87.249646 -1132.204867
1357.378252 -87.330753 -1135.086095
1363.937820 -87.670858 -1142.301824
1371.393105 -88.044159 -1150.088121
1370.727097 -88.126070 -1152.998003
1384.936871 -88.958824 -1171.631444
1384.263933 -89.041586 -1174.571540
1548.521584 -50.538388 202.004987
1547.905117 -50.614199 199.311884
1547.288659 -50.690011 196.618721
1495.445424 -55.034670 32.903443
1502.260123 -55.212126 31.286587
1509.069565 -55.390233 29.646259
1508.453219 -55.466041 26.953175
1507.836752 -55.541851 24.260072
1507.220285 -55.617662 21.566969
1444.960219 -63.274474 -250.436561
1444.343752 -63.350284 -253.129664
1443.727410 -63.426093 -255.822778
1458.400592 -63.797735 -258.981618
1457.778392 -63.874254 -261.699903
1384.226019 -75.241050 -654.785104
1383.597735 -75.318325 -657.530291
1382.969331 -75.395602 -660.275498
1389.080400 -75.659601 -664.966791
1395.564238 -77.183472 -708.388601
1394.926992 -77.261836 -711.172405
1401.942750 -77.559654 -716.395428
1401.302399 -77.638397 -719.192678
1408.309065 -77.937336 -724.455882
1407.665740 -78.016456 -727.266619
1414.663102 -78.316541 -732.570220
1414.016672 -78.396041 -735.394402
1358.102766 -90.205037 -1132.136537
1364.665621 -90.558560 -1139.338521
1364.003059 -90.640043 -1142.233175
1371.458684 -91.028847 -1150.019113
1385.676069 -91.891771 -1168.621624
1385.003131 -91.974533 -1171.561720
1548.582279 -53.300778 202.068855
1547.965811 -53.376588 199.375752
1547.349354 -53.452400 196.682589
1492.902887 -55.890924 88.861479
1492.297525 -55.965365 86.217079
1495.505588 -57.772932 32.966753
1502.320553 -57.962452 31.350176
1501.706830 -58.037930 28.668858
1501.093107 -58.113408 25.987540
1445.020913 -66.036863 -250.372693
1444.404446 -66.112674 -253.065796
1443.788104 -66.188482 -255.758911
1457.839654 -66.662494 -261.635437
1383.659604 -78.134138 -657.465189
1383.031199 -78.211416 -660.210395
1389.142533 -78.487470 -664.901410
1394.989731 -80.117287 -711.106385
1394.352485 -80.195651 -713.890189
1393.715368 -80.274014 -716.674035
1407.729085 -80.899474 -727.199962
1407.085629 -80.978596 -730.010657
1352.297173 -85.367663 -897.622765
1351.659927 -85.446028 -900.406569
1357.186228 -85.940837 -912.137770
1356.545997 -86.019577 -914.935001
1363.337570 -86.358788 -921.138733
1358.167701 -93.160435 -1132.068207
1364.730859 -93.527738 -1139.269872
1364.068297 -93.609221 -1142.164527
1371.524263 -94.013536 -1149.950106
1378.973179 -94.418704 -1157.765918
1386.415387 -94.824714 -1165.611785
1385.742329 -94.907479 -1168.551899
1385.069392 -94.990242 -1171.491995
1548.642973 -56.063167 202.132722
1548.026506 -56.138978 199.439619
1547.410048 -56.214789 196.746456
1493.567734 -58.528907 91.568513
1492.962483 -58.603344 88.924192
1492.357122 -58.677784 86.279791
1495.565753 -60.511194 33.030063
1502.380982 -60.712777 31.413765
1501.767259 -60.788255 28.732446
1508.574608 -60.990819 27.080910
1445.081608 -68.799252 -250.308826
1444.465141 -68.875063 -253.001928
1443.848799 -68.950871 -255.695043
1457.900917 -69.450734 -261.570972
1465.427717 -69.713356 -264.563907
1371.414449 -80.086932 -639.415367
1370.792254 -80.163452 -642.133681
1377.888372 -80.479041 -647.008231
1377.263072 -80.555940 -649.739992
1376.637772 -80.632838 -652.471753
1376.012472 -80.709737 -655.203513
1375.387284 -80.786631 -657.935195
1382.464663 -81.104499 -662.890499
1381.836379 -81.181774 -665.635687
1387.942601 -81.470561 -670.349913
1393.778108 -83.129457 -716.608016
1407.148974 -83.861613 -729.944001
1406.505649 -83.940734 -732.754738
1373.387568 -85.637101 -805.690458
1351.722666 -88.301471 -900.340550
1351.085549 -88.379833 -903.124395
1356.609039 -88.888807 -914.868663
1363.400915 -89.241806 -921.072076
1358.232636 -96.115826 -1131.999877
1357.573058 -96.196934 -1134.881105
1364.133535 -96.578399 -1142.095878
1371.589842 -96.998224 -1149.881099
1370.923834 -97.080135 -1152.790981
1386.481648 -97.840416 -1165.542061
1385.808590 -97.923181 -1168.482175
1548.703668 -58.825556 202.196590
1548.087201 -58.901367 199.503487
1541.922790 -59.659470 172.572375
1493.022080 -61.315755 88.986904
1495.625917 -63.249456 33.093373
1502.441412 -63.463103 31.477353
1509.251649 -63.677401 29.837862
1508.635303 -63.753208 27.144778
1445.142302 -71.561641 -250.244958
1444.525835 -71.637452 -252.938061
1443.909494 -71.713260 -255.631175
1457.962179 -72.238966 -261.506507
1465.489283 -72.515375 -264.499123
1464.863978 -72.592273 -267.230854
1417.994724 -76.102378 -404.725123
1371.475711 -82.875164 -639.350901
1370.853516 -82.951684 -642.069216
1370.231321 -83.028203 -644.787531
1377.324637 -83.357959 -649.675208
1376.699337 -83.434857 -652.406969
1376.074038 -83.511756 -655.138729
1383.154936 -83.843028 -660.080190
1389.266800 -84.143217 -664.770646
1388.635763 -84.220823 -667.527559
1393.840847 -85.984900 -716.541997
1393.203600 -86.063265 -719.325800
1407.212319 -86.744631 -729.877344
1406.568994 -86.823751 -732.688081
1367.166172 -88.063283 -797.201957
1366.532030 -88.141268 -799.972315
1365.897898 -88.219255 -802.742734
1351.785405 -91.156914 -900.274530
1351.148289 -91.235277 -903.058376
1350.511052 -91.313642 -905.842240
1357.312312 -91.679297 -912.005094
1356.672081 -91.758038 -914.802325
1362.820934 -92.203943 -923.816156
1362.177479 -92.283066 -926.626852
1358.297571 -99.071217 -1131.931547
1357.637993 -99.152325 -1134.812775
1364.198773 -99.547577 -1142.027229
1371.655421 -99.982912 -1149.812091
1370.989413 -100.064823 -1152.721974
1386.547908 -100.856124 -1165.472336
1385.874850 -100.938890 -1168.412450
1548.764362 -61.587945 202.260458
1548.147895 -61.663756 199.567355
1542.599942 -62.346047 175.329406
1541.983485 -62.421859 172.636243
1495.074992 -66.062868 30.487070
1501.888118 -66.288907 28.859624
1501.274396 -66.364384 26.178306
1500.660682 -66.439864 23.496928
1445.202997 -74.324030 -250.181090
1444.586530 -74.399841 -252.874193
1443.970188 -74.475649 -255.567307
1458.023442 -75.027205 -261.442041
1465.550848 -75.317402 -264.434339
1411.915394 -78.417773 -395.608736
1411.299052 -78.493581 -398.301850
1410.682585 -78.569392 -400.994953
1369.670388 -85.892962 -647.441381
1376.760903 -86.236884 -652.342185
1376.135603 -86.313782 -655.073945
1389.960091 -86.893477 -661.948334
1389.328933 -86.971086 -664.705265
1393.266340 -88.918708 -719.259781
1367.228609 -90.904940 -797.136257
1366.594467 -90.982925 -799.906615
1365.960334 -91.060911 -802.677033
1350.573791 -94.169086 -905.776221
1349.936544 -94.247450 -908.560025
1356.735124 -94.627268 -914.735987
1363.601348 -102.598252 -1144.853374
1371.054992 -103.049512 -1152.652966
1378.501446 -103.501634 -1160.482688
1385.941111 -103.954598 -1168.342726
1548.825057 -64.350334 202.324325
1548.208590 -64.426145 199.631223
1542.660637 -65.108436 175.393273
1542.044179 -65.184248 172.700110
1495.135156 -68.801130 30.550380
1501.948548 -69.039232 28.923213
1508.756692 -69.277987 27.272513
1508.140225 -69.353797 24.579410
1445.263692 -77.086420 -250.117222
1444.647225 -77.162230 -252.810325
1444.030883 -77.238038 -255.503440
1458.084705 -77.815445 -261.377576
1413.209023 -81.028541 -390.158663
1412.592561 -81.104352 -392.851796
1411.976089 -81.180162 -395.544868
1411.359747 -81.255970 -398.237983
1410.743280 -81.331781 -400.931086
1378.698368 -88.808215 -644.082119
1376.822469 -89.038910 -652.277400
1376.197169 -89.115809 -655.009161
1390.022225 -89.721354 -661.882952
1389.391067 -89.798964 -664.639883
1400.977379 -92.063289 -721.658220
1358.469746 -93.601711 -799.730205
1349.999284 -97.102893 -908.494006
1349.362158 -97.181254 -911.277791
1348.724921 -97.259620 -914.061655
1363.666586 -105.567430 -1144.784726
1371.120570 -106.034200 -1152.583959
1386.007371 -106.970307 -1168.273001
1548.885752 -67.112724 202.388193
1548.269285 -67.188534 199.695090
1542.104874 -67.946637 172.763978
1502.622700 -71.714080 31.668120
1502.008978 -71.789558 28.986802
1501.395255 -71.865036 26.305484
1516.680315 -72.316947 25.808046
1516.060744 -72.393137 23.101497
1515.441172 -72.469327 20.394948
1458.145967 -80.603677 -261.313111
1457.523772 -80.680197 -264.031426
1421.275329 -84.049955 -390.999827
1420.655762 -84.126146 -393.706406
1420.036311 -84.202332 -396.412936
1426.413562 -84.506167 -399.946681
1425.791362 -84.582686 -402.664966
1433.159376 -84.920130 -406.355523
1378.134634 -91.687132 -646.749095
1377.509334 -91.764031 -649.480856
1376.884034 -91.840929 -652.212616
1383.968945 -92.213183 -657.139675
1390.084358 -92.549224 -661.817570
1394.029064 -94.551231 -716.343939
1401.040421 -94.932519 -721.591882
1349.424897 -100.036698 -911.211772
1348.787660 -100.115063 -913.995636
1358.152863 -105.336580 -1056.965068
1378.633286 -109.502031 -1160.343956
1386.073632 -109.986016 -1168.203277
1548.946446 -69.875113 202.452061
1548.329979 -69.950923 199.758958
1542.165568 -70.709026 172.827846
1495.255486 -74.277661 30.677000
1502.069407 -74.539883 29.050390
1501.455684 -74.615361 26.369072
1508.261614 -74.878576 24.707146
1507.645147 -74.954386 22.014043
1507.028680 -75.030197 19.320940
1451.692404 -83.092903 -258.314961
1458.207230 -83.391917 -261.248645
1457.585034 -83.468436 -263.966960
1422.575345 -86.673754 -385.522532
1427.719220 -87.141368 -394.445616
1435.096725 -87.491465 -398.095506
1434.471425 -87.568364 -400.827267
