# .PCD v0.7 - Point Cloud Data file format
VERSION 0.7
FIELDS x y z rgb
SIZE 4 4 4 4
TYPE F F F F
COUNT 1 1 1 1
WIDTH 1124
HEIGHT 1
VIEWPOINT 0 0 0 1 0 0 0
POINTS 1124
DATA ascii
-171.8069 -21.475863 -2076 1.3818878e-038
-205.10001 -21.217241 -2051 1.3727041e-038
-208.6362 -21.217241 -2051 1.3634846e-038
-212.17241 -21.217241 -2051 1.3634846e-038
-214.44655 -21.093103 -2039 1.354265e-038
-252.10173 -20.72069 -2003 1.3634846e-038
-255.55518 -20.72069 -2003 1.3358259e-038
-261.02069 -20.606897 -1992 1.3634846e-038
-264.45517 -20.606897 -1992 1.3727041e-038
-267.88965 -20.606897 -1992 1.3727041e-038
-269.68967 -20.482759 -1980 1.3542293e-038
-273.10345 -20.482759 -1980 1.3542293e-038
-276.51724 -20.482759 -1980 1.3449743e-038
-308.83447 -20.141378 -1947 1.3634134e-038
-312.19138 -20.141378 -1947 1.3541938e-038
-315.54828 -20.141378 -1947 1.3449743e-038
-317.10345 -20.027586 -1936 1.3449743e-038
-320.44138 -20.027586 -1936 1.3541938e-038
-340.07758 -19.810345 -1915 1.3634134e-038
-343.3793 -19.810345 -1915 1.3634134e-038
-344.68967 -19.696552 -1904 1.3634134e-038
-347.97241 -19.696552 -1904 1.3634134e-038
-404.7207 -19.272413 -1863 1.3634487e-038
-407.93277 -19.272413 -1863 1.3634487e-038
-415.32758 -19.168966 -1853 1.3726329e-038
-436.12759 -18.962069 -1833 1.3449743e-038
-439.28793 -18.962069 -1833 1.3449743e-038
-442.44827 -18.962069 -1833 1.3357547e-038
-443.42068 -18.868965 -1824 1.3357547e-038
-446.56552 -18.868965 -1824 1.3357547e-038
-449.71036 -18.868965 -1824 1.3357547e-038
-452.85516 -18.868965 -1824 1.3449743e-038
-453.5 -18.765518 -1814 1.3449743e-038
-456.62759 -18.765518 -1814 1.3449743e-038
-505.0069 -18.475863 -1786 1.2898008e-038
-508.08621 -18.475863 -1786 1.2898008e-038
-511.16553 -18.475863 -1786 1.2898008e-038
-514.24481 -18.475863 -1786 1.2898008e-038
-514.71722 -18.382759 -1777 1.2898008e-038
-517.78101 -18.382759 -1777 1.2990204e-038
-549.13794 -18.103449 -1750 1.3081315e-038
-552.15515 -18.103449 -1750 1.2989119e-038
-555.17242 -18.103449 -1750 1.2897281e-038
-558.18964 -18.103449 -1750 1.2897281e-038
-558.32068 -18.010345 -1741 1.2897281e-038
-561.32239 -18.010345 -1741 1.2897281e-038
-576.31378 -17.824139 -1723 1.2713617e-038
-579.28448 -17.824139 -1723 1.2621421e-038
-582.25519 -17.824139 -1723 1.2529225e-038
-582.50861 -17.741379 -1715 1.243703e-038
-585.46552 -17.741379 -1715 1.243703e-038
-585.33447 -17.648275 -1706 1.2529225e-038
-588.27588 -17.648275 -1706 1.2621421e-038
-591.21722 -17.648275 -1706 1.2713617e-038
-620.23102 -17.389656 -1681 1.243703e-038
-623.12933 -17.389656 -1681 1.2437027e-038
-623.04828 -17.306896 -1673 1.2437027e-038
-625.93274 -17.306896 -1673 1.2437027e-038
-628.81726 -17.306896 -1673 1.2437384e-038
-631.70172 -17.306896 -1673 1.2437384e-038
-631.5517 -17.224138 -1665 1.2437742e-038
-634.42242 -17.224138 -1665 1.2437742e-038
-637.29309 -17.224138 -1665 1.2437742e-038
-640.16382 -17.224138 -1665 1.2437742e-038
-639.94482 -17.141378 -1657 1.2529584e-038
-642.8017 -17.141378 -1657 1.2713615e-038
-645.38446 -17.05862 -1649 1.2713617e-038
-648.2276 -17.05862 -1649 1.2713617e-038
-651.07068 -17.05862 -1649 1.2713617e-038
-653.91382 -17.05862 -1649 1.2713617e-038
-653.57068 -16.975863 -1641 1.2713617e-038
-656.40002 -16.975863 -1641 1.2713617e-038
-659.22931 -16.975863 -1641 1.2713617e-038
-659.2345 -16.903448 -1634 1.2621421e-038
-662.0517 -16.903448 -1634 1.2621421e-038
-661.61377 -16.82069 -1626 1.2621421e-038
-664.41724 -16.82069 -1626 1.2621421e-038
-667.2207 -16.82069 -1626 1.2529225e-038
-670.02411 -16.82069 -1626 1.2344837e-038
-672.30688 -16.73793 -1618 1.2251925e-038
-675.09656 -16.73793 -1618 1.2251925e-038
-680.50861 -16.665518 -1611 1.2251925e-038
-683.28619 -16.665518 -1611 1.2251925e-038
-686.06378 -16.665518 -1611 1.2344121e-038
-688.84137 -16.665518 -1611 1.2344121e-038
-690.9483 -16.582758 -1603 1.2251925e-038
-712.69653 -16.510345 -1596 1.2069333e-038
-712.31036 -16.437931 -1589 1.2069333e-038
-711.45001 -16.355173 -1581 1.1977138e-038
-714.17584 -16.355173 -1581 1.1884942e-038
-713.7276 -16.282759 -1574 1.1884942e-038
-716.44141 -16.282759 -1574 1.1884942e-038
-719.15515 -16.282759 -1574 1.1884942e-038
-729.46552 -16.210344 -1567 1.1884942e-038
-732.16724 -16.210344 -1567 1.1884942e-038
-731.58618 -16.137932 -1560 1.160764e-038
-734.27588 -16.137932 -1560 1.1423249e-038
-736.96552 -16.137932 -1560 1.160764e-038
-736.33618 -16.065517 -1553 1.1792032e-038
-739.01379 -16.065517 -1553 1.1792032e-038
-741.69141 -16.065517 -1553 1.1792032e-038
-744.36896 -16.065517 -1553 1.1699836e-038
-743.67932 -15.993103 -1546 1.1884227e-038
-742.96552 -15.92069 -1539 1.1884227e-038
-745.61896 -15.92069 -1539 1.1884227e-038
-748.2724 -15.92069 -1539 1.1884227e-038
-747.51031 -15.848276 -1532 1.1884227e-038
-750.15173 -15.848276 -1532 1.1884227e-038
-768.64136 -15.848276 -1532 1.1791677e-038
-767.75861 -15.775862 -1525 1.1791677e-038
66.856895 -27.52931 -2281 1.3817435e-038
62.924137 -27.52931 -2281 1.3633768e-038
58.991379 -27.52931 -2281 1.3633768e-038
15.531034 -27.17931 -2252 1.3634488e-038
11.648276 -27.17931 -2252 1.3266065e-038
7.7655172 -27.17931 -2252 1.3266063e-038
3.8568966 -26.998276 -2237 1.3266065e-038
-0 -26.998276 -2237 1.3450454e-038
-3.8568966 -26.998276 -2237 1.3450454e-038
-56.741379 -26.479311 -2194 1.3358257e-038
-60.524139 -26.479311 -2194 1.345081e-038
-64.3069 -26.479311 -2194 1.36352e-038
-67.686211 -26.322414 -2181 1.3450809e-038
-71.446548 -26.322414 -2181 1.3450809e-038
-75.206894 -26.322414 -2181 1.3358613e-038
-78.460342 -26.153448 -2167 1.3174222e-038
-82.196548 -26.153448 -2167 1.3174222e-038
-85.377586 -25.984482 -2153 1.3174222e-038
-89.089653 -25.984482 -2153 1.3174222e-038
-92.801727 -25.984482 -2153 1.3174222e-038
-117.35172 -25.670691 -2127 1.326571e-038
-121.01897 -25.670691 -2127 1.326571e-038
-152.14137 -25.356897 -2101 1.3449743e-038
-155.76379 -25.356897 -2101 1.3449743e-038
-159.3862 -25.356897 -2101 1.3449743e-038
-162 -25.200001 -2088 1.3449743e-038
-164.64827 -25.055172 -2076 1.3450101e-038
-168.22758 -25.055172 -2076 1.3450101e-038
-201.5638 -24.753448 -2051 1.3727041e-038
-205.10001 -24.753448 -2051 1.3634846e-038
-207.41551 -24.608622 -2039 1.3634846e-038
-210.93103 -24.608622 -2039 1.354265e-038
-214.44655 -24.608622 -2039 1.3450454e-038
-252.10173 -24.174137 -2003 1.3634846e-038
-255.55518 -24.174137 -2003 1.354265e-038
-259.00861 -24.174137 -2003 1.3634846e-038
-261.02069 -24.04138 -1992 1.3727041e-038
-264.45517 -24.04138 -1992 1.3727041e-038
-267.88965 -24.04138 -1992 1.3727041e-038
-269.68967 -23.896551 -1980 1.3542651e-038
-273.10345 -23.896551 -1980 1.3542295e-038
-276.51724 -23.896551 -1980 1.3634131e-038
-308.83447 -23.498276 -1947 1.3634134e-038
-312.19138 -23.498276 -1947 1.3541938e-038
-313.7655 -23.365517 -1936 1.3449743e-038
-317.10345 -23.365517 -1936 1.3449743e-038
-340.07758 -23.112068 -1915 1.3726329e-038
-343.3793 -23.112068 -1915 1.3634134e-038
-344.68967 -22.979311 -1904 1.3634134e-038
-347.97241 -22.979311 -1904 1.3634134e-038
-351.25516 -22.979311 -1904 1.3634134e-038
-404.7207 -22.484482 -1863 1.3634487e-038
-407.93277 -22.484482 -1863 1.3634487e-038
-408.93793 -22.363792 -1853 1.3634488e-038
-412.13275 -22.363792 -1853 1.3541938e-038
-436.12759 -22.122414 -1833 1.3449743e-038
-439.28793 -22.122414 -1833 1.3449743e-038
-442.44827 -22.122414 -1833 1.3357547e-038
-443.42068 -22.013794 -1824 1.3357547e-038
-446.56552 -22.013794 -1824 1.3357547e-038
-449.71036 -22.013794 -1824 1.3357547e-038
-450.37241 -21.893103 -1814 1.3449743e-038
-453.5 -21.893103 -1814 1.3449743e-038
-456.62759 -21.893103 -1814 1.3449743e-038
-505.0069 -21.555172 -1786 1.2898008e-038
-508.08621 -21.555172 -1786 1.2898008e-038
-511.16553 -21.555172 -1786 1.2898008e-038
-511.65344 -21.446552 -1777 1.2805812e-038
-514.71722 -21.446552 -1777 1.2805812e-038
-517.78101 -21.446552 -1777 1.2805812e-038
-521.25519 -21.337931 -1768 1.3174595e-038
-552.15515 -21.120689 -1750 1.2989119e-038
-555.17242 -21.120689 -1750 1.2897282e-038
-558.18964 -21.120689 -1750 1.2897282e-038
-558.32068 -21.01207 -1741 1.2897282e-038
-576.31378 -20.794828 -1723 1.2898008e-038
-579.28448 -20.794828 -1723 1.2898008e-038
-582.25519 -20.794828 -1723 1.2713617e-038
-582.50861 -20.698277 -1715 1.2621421e-038
-585.46552 -20.698277 -1715 1.2621421e-038
-585.33447 -20.589655 -1706 1.2621421e-038
-588.27588 -20.589655 -1706 1.2713617e-038
-591.21722 -20.589655 -1706 1.2898008e-038
-620.63794 -20.396551 -1690 1.2713259e-038
-620.23102 -20.287931 -1681 1.2621421e-038
-620.16382 -20.19138 -1673 1.2621421e-038
-623.04828 -20.19138 -1673 1.243703e-038
-625.93274 -20.19138 -1673 1.2437386e-038
-628.81726 -20.19138 -1673 1.2437386e-038
-631.5517 -20.094828 -1665 1.2437742e-038
-634.42242 -20.094828 -1665 1.2437742e-038
-637.29309 -20.094828 -1665 1.2437742e-038
-640.16382 -20.094828 -1665 1.2437742e-038
-639.94482 -19.998276 -1657 1.2437747e-038
-642.8017 -19.998276 -1657 1.2713615e-038
-642.54138 -19.901724 -1649 1.2713617e-038
-645.38446 -19.901724 -1649 1.2713617e-038
-648.2276 -19.901724 -1649 1.2713617e-038
-651.07068 -19.901724 -1649 1.2713617e-038
-650.74139 -19.805172 -1641 1.2713617e-038
-653.57068 -19.805172 -1641 1.2713617e-038
-656.40002 -19.805172 -1641 1.2529225e-038
-656.41724 -19.72069 -1634 1.2529225e-038
-659.2345 -19.72069 -1634 1.2529225e-038
-662.0517 -19.72069 -1634 1.2621421e-038
-661.61377 -19.624138 -1626 1.2621421e-038
-664.41724 -19.624138 -1626 1.2621421e-038
-667.2207 -19.624138 -1626 1.2529225e-038
-672.30688 -19.527586 -1618 1.2251925e-038
-675.09656 -19.527586 -1618 1.2251925e-038
-686.06378 -19.443104 -1611 1.2436316e-038
-690.9483 -19.346552 -1603 1.2344121e-038
-709.57068 -19.177586 -1589 1.2069333e-038
-712.31036 -19.177586 -1589 1.2069333e-038
-711.45001 -19.081034 -1581 1.1884942e-038
-714.17584 -19.081034 -1581 1.1792746e-038
-713.7276 -18.996552 -1574 1.1792746e-038
-716.44141 -18.996552 -1574 1.1884942e-038
-732.16724 -18.912069 -1567 1.1884942e-038
-731.58618 -18.827587 -1560 1.1884583e-038
-734.27588 -18.827587 -1560 1.1699836e-038
-736.96552 -18.827587 -1560 1.1792032e-038
-736.33618 -18.743103 -1553 1.1792032e-038
-739.01379 -18.743103 -1553 1.1792032e-038
-741.69141 -18.743103 -1553 1.1884227e-038
-741.01379 -18.658621 -1546 1.1884227e-038
-740.31207 -18.574139 -1539 1.1884227e-038
-742.96552 -18.574139 -1539 1.1884227e-038
-745.61896 -18.574139 -1539 1.1884227e-038
-748.2724 -18.574139 -1539 1.1884227e-038
-744.09485 -18.405172 -1525 1.1884227e-038
-762.5 -18.405172 -1525 1.1699482e-038
-765.12933 -18.405172 -1525 1.1699482e-038
-767.75861 -18.405172 -1525 1.1699482e-038
66.856895 -31.462069 -2281 1.3817075e-038
62.924137 -31.462069 -2281 1.3634127e-038
15.531034 -31.062069 -2252 1.3266063e-038
11.648276 -31.062069 -2252 1.3266063e-038
7.7137933 -30.855173 -2237 1.3266063e-038
3.8568966 -30.855173 -2237 1.3266063e-038
-56.741379 -30.26207 -2194 1.3450452e-038
-60.524139 -30.26207 -2194 1.345081e-038
-64.3069 -30.26207 -2194 1.345081e-038
-67.686211 -30.082758 -2181 1.3450809e-038
-71.446548 -30.082758 -2181 1.3450809e-038
-75.206894 -30.082758 -2181 1.3450809e-038
-78.460342 -29.889656 -2167 1.3450809e-038
-82.196548 -29.889656 -2167 1.3450809e-038
-92.801727 -29.696552 -2153 1.3358613e-038
-96.513794 -29.696552 -2153 1.3450809e-038
-100.22586 -29.696552 -2153 1.36352e-038
-103.93793 -29.696552 -2153 1.36352e-038
-117.35172 -29.337931 -2127 1.344974e-038
-152.14137 -28.979311 -2101 1.3634134e-038
-155.76379 -28.979311 -2101 1.3726329e-038
-159.3862 -28.979311 -2101 1.3726329e-038
-162 -28.799999 -2088 1.3634134e-038
-164.64827 -28.634483 -2076 1.3541937e-038
-168.22758 -28.634483 -2076 1.3542294e-038
-194.49138 -28.289656 -2051 1.354265e-038
-198.02759 -28.289656 -2051 1.3450454e-038
-201.5638 -28.289656 -2051 1.3450454e-038
-205.10001 -28.289656 -2051 1.3450454e-038
-207.41551 -28.124138 -2039 1.3450454e-038
-210.93103 -28.124138 -2039 1.3450454e-038
-243.18965 -27.793104 -2015 1.3634846e-038
-246.66379 -27.793104 -2015 1.3634846e-038
-248.64827 -27.627586 -2003 1.354265e-038
-252.10173 -27.627586 -2003 1.354265e-038
-255.55518 -27.627586 -2003 1.3634846e-038
-257.58621 -27.475863 -1992 1.3727041e-038
-261.02069 -27.475863 -1992 1.3819237e-038
-264.45517 -27.475863 -1992 1.3727041e-038
-266.27585 -27.310345 -1980 1.3542651e-038
-269.68967 -27.310345 -1980 1.3542651e-038
-273.10345 -27.310345 -1980 1.3634131e-038
-290.32413 -27.006897 -1958 1.3634134e-038
-305.4776 -26.855173 -1947 1.3634134e-038
-307.08966 -26.703447 -1936 1.3541938e-038
-310.42758 -26.703447 -1936 1.3541938e-038
-313.7655 -26.703447 -1936 1.3449743e-038
-317.10345 -26.703447 -1936 1.3449743e-038
-344.68967 -26.26207 -1904 1.3726329e-038
-347.97241 -26.26207 -1904 1.3634134e-038
-351.25516 -26.26207 -1904 1.3634134e-038
-397.20517 -25.834482 -1873 1.3634846e-038
-401.50861 -25.696552 -1863 1.3634846e-038
-402.54828 -25.55862 -1853 1.3634846e-038
-405.7431 -25.55862 -1853 1.3634847e-038
-408.93793 -25.55862 -1853 1.3634491e-038
-412.13275 -25.55862 -1853 1.3634134e-038
-436.12759 -25.282759 -1833 1.3634134e-038
-439.28793 -25.282759 -1833 1.3634134e-038
-442.44827 -25.282759 -1833 1.3541938e-038
-443.42068 -25.158621 -1824 1.3449743e-038
-446.56552 -25.158621 -1824 1.3357547e-038
-449.71036 -25.158621 -1824 1.3357547e-038
-450.37241 -25.020689 -1814 1.3449743e-038
-453.5 -25.020689 -1814 1.3541938e-038
-456.62759 -25.020689 -1814 1.3541938e-038
-505.0069 -24.634483 -1786 1.2990204e-038
-508.08621 -24.634483 -1786 1.2990204e-038
-511.65344 -24.510345 -1777 1.2805812e-038
-514.71722 -24.510345 -1777 1.2805812e-038
-517.78101 -24.510345 -1777 1.2805812e-038
-521.25519 -24.386208 -1768 1.2805812e-038
-524.30347 -24.386208 -1768 1.2805812e-038
-549.13794 -24.137932 -1750 1.3081672e-038
-552.15515 -24.137932 -1750 1.2989476e-038
-555.17242 -24.137932 -1750 1.2896923e-038
-555.31897 -24.013794 -1741 1.2896923e-038
-558.32068 -24.013794 -1741 1.2989119e-038
-576.31378 -23.765518 -1723 1.2898008e-038
-579.28448 -23.765518 -1723 1.2898008e-038
-582.50861 -23.655172 -1715 1.2990204e-038
-585.46552 -23.655172 -1715 1.3082399e-038
-585.33447 -23.531034 -1706 1.3082399e-038
-588.27588 -23.531034 -1706 1.3174595e-038
-591.21722 -23.531034 -1706 1.3174595e-038
-617.33276 -23.186207 -1681 1.2713618e-038
-620.23102 -23.186207 -1681 1.2713618e-038
-620.16382 -23.075863 -1673 1.2713617e-038
-623.04828 -23.075863 -1673 1.2805809e-038
-625.93274 -23.075863 -1673 1.2805808e-038
-634.42242 -22.965517 -1665 1.2437742e-038
-637.29309 -22.965517 -1665 1.2437742e-038
-637.08795 -22.855173 -1657 1.2437742e-038
-639.94482 -22.855173 -1657 1.2437386e-038
-639.6983 -22.744827 -1649 1.243703e-038
-642.54138 -22.744827 -1649 1.243703e-038
-645.38446 -22.744827 -1649 1.243703e-038
-650.74139 -22.634483 -1641 1.243703e-038
-653.57068 -22.634483 -1641 1.243703e-038
-656.40002 -22.634483 -1641 1.243703e-038
-656.41724 -22.537931 -1634 1.243703e-038
-659.2345 -22.537931 -1634 1.243703e-038
-662.0517 -22.537931 -1634 1.243703e-038
-672.30688 -22.317242 -1618 1.2251925e-038
-675.09656 -22.317242 -1618 1.2251925e-038
-677.88623 -22.317242 -1618 1.2067534e-038
-677.73102 -22.22069 -1611 1.2251925e-038
-693.7121 -22.110344 -1603 1.2251925e-038
-709.57068 -21.917242 -1589 1.2069333e-038
-712.31036 -21.917242 -1589 1.1977138e-038
-711.45001 -21.806896 -1581 1.1792746e-038
-714.17584 -21.806896 -1581 1.1792746e-038
-713.7276 -21.710344 -1574 1.1792746e-038
-716.44141 -21.710344 -1574 1.1884942e-038
-732.16724 -21.613792 -1567 1.2068617e-038
-731.58618 -21.517241 -1560 1.1976782e-038
-734.27588 -21.517241 -1560 1.1884227e-038
-733.65863 -21.420691 -1553 1.1792032e-038
-736.33618 -21.420691 -1553 1.1792032e-038
-739.01379 -21.420691 -1553 1.1792032e-038
-741.69141 -21.420691 -1553 1.1976423e-038
-741.01379 -21.324139 -1546 1.1976423e-038
-740.31207 -21.227587 -1539 1.1976423e-038
-742.96552 -21.227587 -1539 1.1976423e-038
-745.61896 -21.227587 -1539 1.1884227e-038
-748.2724 -21.227587 -1539 1.1884227e-038
-744.09485 -21.034483 -1525 1.1884227e-038
-762.5 -21.034483 -1525 1.1699482e-038
-765.12933 -21.034483 -1525 1.151509e-038
71.286209 -35.643105 -2297 1.4000746e-038
67.325859 -35.643105 -2297 1.3817794e-038
62.924137 -35.394829 -2281 1.3726677e-038
19.413794 -34.944828 -2252 1.3266063e-038
15.531034 -34.944828 -2252 1.3266063e-038
11.648276 -34.944828 -2252 1.3266063e-038
7.7137933 -34.71207 -2237 1.3266063e-038
3.8568966 -34.71207 -2237 1.3266422e-038
-56.741379 -34.044827 -2194 1.345081e-038
-60.524139 -34.044827 -2194 1.345081e-038
-64.3069 -34.044827 -2194 1.3450809e-038
-67.686211 -33.843105 -2181 1.3450809e-038
-71.446548 -33.843105 -2181 1.3450809e-038
-75.206894 -33.843105 -2181 1.3450809e-038
-96.513794 -33.408619 -2153 1.3543005e-038
-100.22586 -33.408619 -2153 1.36352e-038
-110.68965 -33.206898 -2140 1.3174222e-038
-114.37931 -33.206898 -2140 1.3174222e-038
-117.35172 -33.005173 -2127 1.344974e-038
-152.14137 -32.601723 -2101 1.3726329e-038
-155.76379 -32.601723 -2101 1.3818525e-038
-159.3862 -32.601723 -2101 1.3818525e-038
-162 -32.400002 -2088 1.3726329e-038
-164.64827 -32.213795 -2076 1.3634134e-038
-168.22758 -32.213795 -2076 1.3634488e-038
-198.02759 -31.825863 -2051 1.3450454e-038
-201.5638 -31.825863 -2051 1.3450454e-038
-203.89999 -31.639656 -2039 1.3450454e-038
-207.41551 -31.639656 -2039 1.3450454e-038
-210.93103 -31.639656 -2039 1.3450454e-038
-243.18965 -31.267241 -2015 1.3634846e-038
-246.66379 -31.267241 -2015 1.354265e-038
-248.64827 -31.081034 -2003 1.354265e-038
-252.10173 -31.081034 -2003 1.354265e-038
-255.55518 -31.081034 -2003 1.3727041e-038
-257.58621 -30.910345 -1992 1.3819237e-038
-261.02069 -30.910345 -1992 1.3819237e-038
-264.45517 -30.910345 -1992 1.3727041e-038
-266.27585 -30.724138 -1980 1.354265e-038
-269.68967 -30.724138 -1980 1.354265e-038
-273.10345 -30.724138 -1980 1.3634131e-038
-278.37585 -30.553448 -1969 1.3634134e-038
-281.77069 -30.553448 -1969 1.3634134e-038
-290.32413 -30.382759 -1958 1.3634134e-038
-293.70001 -30.382759 -1958 1.3634134e-038
-310.42758 -30.04138 -1936 1.3541938e-038
-313.7655 -30.04138 -1936 1.3449743e-038
-317.10345 -30.04138 -1936 1.3449743e-038
-321.93967 -29.870689 -1925 1.3634134e-038
-344.68967 -29.544828 -1904 1.3726329e-038
-347.97241 -29.544828 -1904 1.3726329e-038
-351.25516 -29.544828 -1904 1.3634134e-038
-398.29654 -28.908621 -1863 1.3634846e-038
-401.50861 -28.908621 -1863 1.3634846e-038
-402.54828 -28.753448 -1853 1.3634487e-038
-405.7431 -28.753448 -1853 1.3634488e-038
-408.93793 -28.753448 -1853 1.363449e-038
-412.13275 -28.753448 -1853 1.3542295e-038
-432.96725 -28.443104 -1833 1.3357547e-038
-436.12759 -28.443104 -1833 1.3449743e-038
-439.28793 -28.443104 -1833 1.3818525e-038
-443.42068 -28.303448 -1824 1.3449743e-038
-446.56552 -28.303448 -1824 1.3357547e-038
-449.71036 -28.303448 -1824 1.3357547e-038
-450.37241 -28.148275 -1814 1.3357547e-038
-453.5 -28.148275 -1814 1.3541938e-038
-456.62759 -28.148275 -1814 1.3541938e-038
-505.0069 -27.713793 -1786 1.2990204e-038
-508.08621 -27.713793 -1786 1.2990204e-038
-511.65344 -27.574139 -1777 1.2990204e-038
-514.71722 -27.574139 -1777 1.2805812e-038
-517.78101 -27.574139 -1777 1.2805812e-038
-521.25519 -27.434483 -1768 1.2805812e-038
-524.30347 -27.434483 -1768 1.2805812e-038
-549.13794 -27.155172 -1750 1.3082031e-038
-552.15515 -27.155172 -1750 1.2897282e-038
-555.17242 -27.155172 -1750 1.2896923e-038
-555.31897 -27.015518 -1741 1.2896923e-038
-558.32068 -27.015518 -1741 1.2989119e-038
-582.50861 -26.612068 -1715 1.2990204e-038
-585.46552 -26.612068 -1715 1.3082399e-038
-585.33447 -26.472414 -1706 1.3082399e-038
-588.27588 -26.472414 -1706 1.3174595e-038
-591.21722 -26.472414 -1706 1.3174595e-038
-617.33276 -26.084482 -1681 1.2713259e-038
-620.23102 -26.084482 -1681 1.2713617e-038
-620.16382 -25.960344 -1673 1.2805811e-038
-623.04828 -25.960344 -1673 1.2805809e-038
-625.93274 -25.960344 -1673 1.2805809e-038
-637.08795 -25.712069 -1657 1.2437742e-038
-639.94482 -25.712069 -1657 1.2437027e-038
-639.6983 -25.587931 -1649 1.243703e-038
-642.54138 -25.587931 -1649 1.243703e-038
-645.38446 -25.587931 -1649 1.243703e-038
-647.91205 -25.463793 -1641 1.243703e-038
-650.74139 -25.463793 -1641 1.243703e-038
-653.57068 -25.463793 -1641 1.243703e-038
-656.41724 -25.355173 -1634 1.243703e-038
-659.2345 -25.355173 -1634 1.243703e-038
-662.0517 -25.355173 -1634 1.243703e-038
-672.30688 -25.106897 -1618 1.2251925e-038
-675.09656 -25.106897 -1618 1.215973e-038
-677.88623 -25.106897 -1618 1.2067534e-038
-677.73102 -24.998276 -1611 1.215973e-038
-698.93793 -24.765518 -1596 1.2251925e-038
-701.68964 -24.765518 -1596 1.2067534e-038
-701.35175 -24.656897 -1589 1.1976419e-038
-704.09137 -24.656897 -1589 1.1977138e-038
-706.83105 -24.656897 -1589 1.2069333e-038
-709.57068 -24.656897 -1589 1.2069333e-038
-712.31036 -24.656897 -1589 1.1700551e-038
-708.29999 -24.424137 -1574 1.1700551e-038
-711.01379 -24.424137 -1574 1.1792746e-038
-713.7276 -24.424137 -1574 1.1977138e-038
-716.44141 -24.424137 -1574 1.2069333e-038
-731.58618 -24.206896 -1560 1.2068617e-038
-734.27588 -24.206896 -1560 1.1976423e-038
-733.65863 -24.098276 -1553 1.1792032e-038
-736.33618 -24.098276 -1553 1.1699836e-038
-739.01379 -24.098276 -1553 1.1699836e-038
-741.69141 -24.098276 -1553 1.1792032e-038
-741.01379 -23.989655 -1546 1.1976423e-038
-743.67932 -23.989655 -1546 1.2068619e-038
-746.34485 -23.989655 -1546 1.2068619e-038
-745.61896 -23.881035 -1539 1.1976423e-038
-748.2724 -23.881035 -1539 1.1792032e-038
-747.51031 -23.772413 -1532 1.1792032e-038
-750.15173 -23.772413 -1532 1.1976423e-038
-762.5 -23.663794 -1525 1.1607286e-038
-765.12933 -23.663794 -1525 1.151509e-038
71.286209 -39.603447 -2297 1.4093301e-038
67.325859 -39.603447 -2297 1.390963e-038
23.296553 -38.827587 -2252 1.3266419e-038
19.413794 -38.827587 -2252 1.3266419e-038
15.531034 -38.827587 -2252 1.3266419e-038
11.570689 -38.568966 -2237 1.3266419e-038
7.7137933 -38.568966 -2237 1.3266419e-038
3.8568966 -38.568966 -2237 1.3266422e-038
-56.741379 -37.827587 -2194 1.3450812e-038
-60.524139 -37.827587 -2194 1.345081e-038
-64.3069 -37.827587 -2194 1.3450809e-038
-67.686211 -37.603447 -2181 1.3450809e-038
-71.446548 -37.603447 -2181 1.3450809e-038
-75.206894 -37.603447 -2181 1.3450809e-038
-100.22586 -37.120689 -2153 1.3543005e-038
-107 -36.896553 -2140 1.3358613e-038
-110.68965 -36.896553 -2140 1.3174222e-038
-114.37931 -36.896553 -2140 1.3174222e-038
-155.76379 -36.224136 -2101 1.3910721e-038
-159.3862 -36.224136 -2101 1.3910721e-038
-162 -36 -2088 1.3818525e-038
-164.64827 -35.793102 -2076 1.3726329e-038
-168.22758 -35.793102 -2076 1.363449e-038
-170.73103 -35.568966 -2063 1.3634488e-038
-174.28793 -35.568966 -2063 1.354265e-038
-200.38448 -35.155174 -2039 1.3450454e-038
-203.89999 -35.155174 -2039 1.3450454e-038
-207.41551 -35.155174 -2039 1.3450454e-038
-210.93103 -35.155174 -2039 1.3450454e-038
-243.18965 -34.741379 -2015 1.354265e-038
-246.66379 -34.741379 -2015 1.3450454e-038
-248.64827 -34.534481 -2003 1.354265e-038
-252.10173 -34.534481 -2003 1.354265e-038
-255.55518 -34.534481 -2003 1.3727041e-038
-257.58621 -34.344826 -1992 1.3819237e-038
-261.02069 -34.344826 -1992 1.3819237e-038
-264.45517 -34.344826 -1992 1.3727041e-038
-266.27585 -34.137932 -1980 1.354265e-038
-269.68967 -34.137932 -1980 1.354265e-038
-273.10345 -34.137932 -1980 1.3634131e-038
-274.98105 -33.948277 -1969 1.3634134e-038
-278.37585 -33.948277 -1969 1.3634134e-038
-281.77069 -33.948277 -1969 1.3634134e-038
-286.94827 -33.758621 -1958 1.3634134e-038
-290.32413 -33.758621 -1958 1.3634134e-038
-293.70001 -33.758621 -1958 1.3634134e-038
-310.42758 -33.379311 -1936 1.3449743e-038
-313.7655 -33.379311 -1936 1.3449743e-038
-317.10345 -33.379311 -1936 1.3449743e-038
-318.6207 -33.189655 -1925 1.3634134e-038
-321.93967 -33.189655 -1925 1.3634134e-038
-344.68967 -32.827587 -1904 1.3726329e-038
-347.97241 -32.827587 -1904 1.3634134e-038
-351.25516 -32.827587 -1904 1.3541938e-038
-352.67587 -32.655174 -1894 1.3541938e-038
-355.94138 -32.655174 -1894 1.3449743e-038
-359.20691 -32.655174 -1894 1.3449741e-038
-398.29654 -32.120689 -1863 1.354265e-038
-401.50861 -32.120689 -1863 1.354265e-038
-404.7207 -32.120689 -1863 1.354265e-038
-405.7431 -31.948277 -1853 1.3542293e-038
-408.93793 -31.948277 -1853 1.3542294e-038
-412.13275 -31.948277 -1853 1.3449741e-038
-443.42068 -31.448277 -1824 1.3726329e-038
-446.56552 -31.448277 -1824 1.3449743e-038
-449.71036 -31.448277 -1824 1.3357547e-038
-450.37241 -31.275862 -1814 1.3265351e-038
-453.5 -31.275862 -1814 1.3357547e-038
-456.62759 -31.275862 -1814 1.3357547e-038
-505.0069 -30.793104 -1786 1.2990204e-038
-508.08621 -30.793104 -1786 1.2990204e-038
-511.65344 -30.637932 -1777 1.2990204e-038
-514.71722 -30.637932 -1777 1.2805812e-038
-517.78101 -30.637932 -1777 1.2805812e-038
-521.25519 -30.482759 -1768 1.2805812e-038
-524.30347 -30.482759 -1768 1.2805812e-038
-527.35175 -30.482759 -1768 1.2805812e-038
-549.13794 -30.172413 -1750 1.2897639e-038
-552.15515 -30.172413 -1750 1.2896923e-038
-555.17242 -30.172413 -1750 1.2896923e-038
-555.31897 -30.017241 -1741 1.2989119e-038
-558.32068 -30.017241 -1741 1.3081315e-038
-585.46552 -29.568966 -1715 1.2898008e-038
-588.42242 -29.568966 -1715 1.2898008e-038
-591.37933 -29.568966 -1715 1.2898008e-038
-591.21722 -29.413794 -1706 1.2805812e-038
-617.33276 -28.982759 -1681 1.2528868e-038
-620.23102 -28.982759 -1681 1.2529225e-038
-620.16382 -28.844828 -1673 1.2713614e-038
-637.08795 -28.568966 -1657 1.2437742e-038
-639.94482 -28.568966 -1657 1.2437027e-038
-639.6983 -28.431034 -1649 1.243703e-038
-642.54138 -28.431034 -1649 1.243703e-038
-645.38446 -28.431034 -1649 1.243703e-038
-647.91205 -28.293104 -1641 1.243703e-038
-650.74139 -28.293104 -1641 1.243703e-038
-653.57068 -28.293104 -1641 1.243703e-038
-656.41724 -28.172413 -1634 1.243703e-038
-659.2345 -28.172413 -1634 1.243703e-038
-662.0517 -28.172413 -1634 1.243703e-038
-675.09656 -27.896551 -1618 1.2251925e-038
-677.88623 -27.896551 -1618 1.215973e-038
-677.73102 -27.775862 -1611 1.2251925e-038
-696.18622 -27.517241 -1596 1.215973e-038
-698.93793 -27.517241 -1596 1.2067894e-038
-701.68964 -27.517241 -1596 1.1975698e-038
-701.35175 -27.396551 -1589 1.1976059e-038
-704.09137 -27.396551 -1589 1.1977138e-038
-706.83105 -27.396551 -1589 1.2069333e-038
-709.57068 -27.396551 -1589 1.2069333e-038
-708.72412 -27.258621 -1581 1.1700551e-038
-708.29999 -27.137932 -1574 1.1700551e-038
-711.01379 -27.137932 -1574 1.1792746e-038
-713.7276 -27.137932 -1574 1.2069333e-038
-716.44141 -27.137932 -1574 1.2069333e-038
-731.58618 -26.896551 -1560 1.1976782e-038
-734.27588 -26.896551 -1560 1.1976423e-038
-736.96552 -26.896551 -1560 1.1792032e-038
-736.33618 -26.775862 -1553 1.1699836e-038
-739.01379 -26.775862 -1553 1.1699836e-038
-741.69141 -26.775862 -1553 1.1792032e-038
-741.01379 -26.655172 -1546 1.1976423e-038
-743.67932 -26.655172 -1546 1.2068619e-038
-746.34485 -26.655172 -1546 1.2068619e-038
-745.61896 -26.534483 -1539 1.1976423e-038
-748.2724 -26.534483 -1539 1.1792032e-038
-747.51031 -26.413794 -1532 1.1792032e-038
-762.5 -26.293104 -1525 1.1883873e-038
-765.12933 -26.293104 -1525 1.1607286e-038
83.710342 -43.848274 -2312 1.4001103e-038
79.724136 -43.848274 -2312 1.4277333e-038
71.286209 -43.563793 -2297 1.4277333e-038
67.325859 -43.563793 -2297 1.4001825e-038
63.365517 -43.563793 -2297 1.3634481e-038
23.296553 -42.710346 -2252 1.3266419e-038
19.413794 -42.710346 -2252 1.3266419e-038
15.531034 -42.710346 -2252 1.3266419e-038
11.570689 -42.425861 -2237 1.3266419e-038
7.7137933 -42.425861 -2237 1.3266419e-038
3.8568966 -42.425861 -2237 1.3266419e-038
-56.741379 -41.610344 -2194 1.3450812e-038
-60.524139 -41.610344 -2194 1.345081e-038
-63.925861 -41.363792 -2181 1.3450809e-038
-67.686211 -41.363792 -2181 1.3450809e-038
-71.446548 -41.363792 -2181 1.3450809e-038
-75.206894 -41.363792 -2181 1.3450809e-038
-107 -40.586208 -2140 1.3174222e-038
-110.68965 -40.586208 -2140 1.3082028e-038
-114.37931 -40.586208 -2140 1.3174222e-038
-152.14137 -39.84655 -2101 1.3910721e-038
-155.76379 -39.84655 -2101 1.4002916e-038
-159.3862 -39.84655 -2101 1.4002916e-038
-162 -39.599998 -2088 1.3910721e-038
-165.60001 -39.599998 -2088 1.3726688e-038
-168.22758 -39.372414 -2076 1.363449e-038
-170.73103 -39.125862 -2063 1.3634488e-038
-174.28793 -39.125862 -2063 1.354265e-038
-177.84483 -39.125862 -2063 1.3358259e-038
-200.38448 -38.670689 -2039 1.3450454e-038
-203.89999 -38.670689 -2039 1.3450454e-038
-239.71552 -38.215519 -2015 1.3450454e-038
-243.18965 -38.215519 -2015 1.3450454e-038
-246.66379 -38.215519 -2015 1.3450454e-038
-248.64827 -37.98793 -2003 1.3450454e-038
-252.10173 -37.98793 -2003 1.354265e-038
-255.55518 -37.98793 -2003 1.3727041e-038
-257.58621 -37.779312 -1992 1.3819237e-038
-261.02069 -37.779312 -1992 1.3819237e-038
-264.45517 -37.779312 -1992 1.3727041e-038
-266.27585 -37.551723 -1980 1.354265e-038
-269.68967 -37.551723 -1980 1.354265e-038
-273.10345 -37.551723 -1980 1.3634131e-038
-274.98105 -37.343105 -1969 1.3634134e-038
-278.37585 -37.343105 -1969 1.3634134e-038
-281.77069 -37.343105 -1969 1.3634134e-038
-286.94827 -37.134483 -1958 1.3634134e-038
-290.32413 -37.134483 -1958 1.3634134e-038
-317.10345 -36.717243 -1936 1.3357547e-038
-320.44138 -36.717243 -1936 1.3634134e-038
-321.93967 -36.508621 -1925 1.3634134e-038
-325.25861 -36.508621 -1925 1.3634134e-038
-328.57758 -36.508621 -1925 1.3634134e-038
-344.68967 -36.110344 -1904 1.3634134e-038
-347.97241 -36.110344 -1904 1.3541938e-038
-351.25516 -36.110344 -1904 1.3541938e-038
-352.67587 -35.920689 -1894 1.3449743e-038
-355.94138 -35.920689 -1894 1.3357547e-038
-359.20691 -35.920689 -1894 1.3357547e-038
-398.29654 -35.33276 -1863 1.3450454e-038
-401.50861 -35.33276 -1863 1.3450454e-038
-404.7207 -35.33276 -1863 1.3450456e-038
-405.7431 -35.143105 -1853 1.3450456e-038
-408.93793 -35.143105 -1853 1.3449738e-038
-412.13275 -35.143105 -1853 1.326571e-038
-443.42068 -34.593105 -1824 1.3449743e-038
-446.56552 -34.593105 -1824 1.3449743e-038
-449.71036 -34.593105 -1824 1.3357547e-038
-450.37241 -34.40345 -1814 1.3265351e-038
-453.5 -34.40345 -1814 1.3265351e-038
-505.0069 -33.872414 -1786 1.2990204e-038
-508.08621 -33.872414 -1786 1.2990204e-038
-514.71722 -33.701725 -1777 1.2805812e-038
-517.78101 -33.701725 -1777 1.2805812e-038
-521.25519 -33.531036 -1768 1.2805812e-038
-524.30347 -33.531036 -1768 1.2805812e-038
-527.35175 -33.531036 -1768 1.2805812e-038
-549.13794 -33.189655 -1750 1.2805085e-038
-552.15515 -33.189655 -1750 1.2805085e-038
-555.17242 -33.189655 -1750 1.2989119e-038
-555.31897 -33.018967 -1741 1.3081315e-038
-558.32068 -33.018967 -1741 1.3081316e-038
-558.42072 -32.848274 -1732 1.3081316e-038
-561.40692 -32.848274 -1732 1.308096e-038
-564.39313 -32.848274 -1732 1.308096e-038
-585.46552 -32.525864 -1715 1.2805812e-038
-588.42242 -32.525864 -1715 1.2805812e-038
-591.37933 -32.525864 -1715 1.2805812e-038
-591.21722 -32.355171 -1706 1.2621421e-038
-617.72412 -32.051723 -1690 1.2436674e-038
-617.33276 -31.881035 -1681 1.2437031e-038
-620.23102 -31.881035 -1681 1.2437031e-038
-620.16382 -31.729311 -1673 1.2529224e-038
-637.08795 -31.425861 -1657 1.2529937e-038
-639.94482 -31.425861 -1657 1.2437027e-038
-639.6983 -31.274137 -1649 1.243703e-038
-642.54138 -31.274137 -1649 1.243703e-038
-645.38446 -31.274137 -1649 1.243703e-038
-647.91205 -31.122414 -1641 1.243703e-038
-650.74139 -31.122414 -1641 1.243703e-038
-653.57068 -31.122414 -1641 1.243703e-038
-656.41724 -30.989655 -1634 1.243703e-038
-659.2345 -30.989655 -1634 1.243703e-038
-662.0517 -30.989655 -1634 1.243703e-038
-675.63104 -30.837931 -1626 1.2251925e-038
-675.09656 -30.686207 -1618 1.2251925e-038
-677.88623 -30.686207 -1618 1.2344121e-038
-680.67584 -30.686207 -1618 1.2344121e-038
-696.18622 -30.268965 -1596 1.215973e-038
-695.87244 -30.136208 -1589 1.215973e-038
-698.61206 -30.136208 -1589 1.1975698e-038
-697.82068 -29.984482 -1581 1.1976059e-038
-700.54657 -29.984482 -1581 1.1977138e-038
-703.2724 -29.984482 -1581 1.2069333e-038
-705.99829 -29.984482 -1581 1.2069333e-038
-708.72412 -29.984482 -1581 1.1700551e-038
-734.27588 -29.586206 -1560 1.1976423e-038
-736.96552 -29.586206 -1560 1.1792032e-038
-736.33618 -29.453447 -1553 1.1699836e-038
-739.01379 -29.453447 -1553 1.1699836e-038
-738.34827 -29.32069 -1546 1.1792032e-038
-741.01379 -29.32069 -1546 1.1976423e-038
-743.67932 -29.32069 -1546 1.2068619e-038
-746.34485 -29.32069 -1546 1.2068619e-038
-745.61896 -29.187931 -1539 1.1976423e-038
-748.2724 -29.187931 -1539 1.1792032e-038
-747.51031 -29.055172 -1532 1.1792032e-038
-762.5 -28.922413 -1525 1.1883873e-038
-765.12933 -28.922413 -1525 1.1883873e-038
-773.01721 -28.922413 -1525 1.1883873e-038
-775.64655 -28.922413 -1525 1.1883873e-038
83.710342 -47.834484 -2312 1.4001103e-038
67.325859 -47.524139 -2297 1.4001825e-038
23.296553 -46.593105 -2252 1.3266418e-038
19.413794 -46.593105 -2252 1.3266418e-038
15.531034 -46.593105 -2252 1.3266418e-038
11.570689 -46.282757 -2237 1.3266418e-038
7.7137933 -46.282757 -2237 1.3266418e-038
3.8568966 -46.282757 -2237 1.3266419e-038
-52.958622 -45.393105 -2194 1.3358259e-038
-56.741379 -45.393105 -2194 1.345081e-038
-60.165516 -45.124138 -2181 1.3450809e-038
-63.925861 -45.124138 -2181 1.3450809e-038
-67.686211 -45.124138 -2181 1.3450809e-038
-110.68965 -44.275864 -2140 1.3082028e-038
-114.37931 -44.275864 -2140 1.3174222e-038
-152.14137 -43.468964 -2101 1.3818525e-038
-155.76379 -43.468964 -2101 1.3910721e-038
-158.39999 -43.200001 -2088 1.3910721e-038
-162 -43.200001 -2088 1.3818525e-038
-165.60001 -43.200001 -2088 1.3726328e-038
-168.22758 -42.951725 -2076 1.363449e-038
-170.73103 -42.682758 -2063 1.3634488e-038
-174.28793 -42.682758 -2063 1.354265e-038
-177.84483 -42.682758 -2063 1.3358259e-038
-181.40172 -42.682758 -2063 1.3266063e-038
-200.38448 -42.186207 -2039 1.3450454e-038
-203.89999 -42.186207 -2039 1.3450454e-038
-239.71552 -41.689655 -2015 1.3450454e-038
-243.18965 -41.689655 -2015 1.3450454e-038
-246.66379 -41.689655 -2015 1.3450454e-038
-248.64827 -41.44138 -2003 1.3450454e-038
-252.10173 -41.44138 -2003 1.354265e-038
-254.15172 -41.213795 -1992 1.3727041e-038
-257.58621 -41.213795 -1992 1.3819237e-038
-261.02069 -41.213795 -1992 1.3819237e-038
-264.45517 -41.213795 -1992 1.3727041e-038
-266.27585 -40.965519 -1980 1.354265e-038
-269.68967 -40.965519 -1980 1.354265e-038
-273.10345 -40.965519 -1980 1.3634131e-038
-274.98105 -40.73793 -1969 1.3634134e-038
-278.37585 -40.73793 -1969 1.3634134e-038
-281.77069 -40.73793 -1969 1.3634134e-038
-286.94827 -40.510345 -1958 1.3634134e-038
-313.7655 -40.055172 -1936 1.3265351e-038
-317.10345 -40.055172 -1936 1.3265351e-038
-320.44138 -40.055172 -1936 1.3634134e-038
-321.93967 -39.827587 -1925 1.3634134e-038
-325.25861 -39.827587 -1925 1.3634134e-038
-328.57758 -39.827587 -1925 1.3634134e-038
-344.68967 -39.393105 -1904 1.3541938e-038
-347.97241 -39.393105 -1904 1.3541938e-038
-351.25516 -39.393105 -1904 1.3449743e-038
-352.67587 -39.186207 -1894 1.3357547e-038
-355.94138 -39.186207 -1894 1.3357547e-038
-359.20691 -39.186207 -1894 1.326571e-038
-401.50861 -38.544827 -1863 1.3450454e-038
-404.7207 -38.544827 -1863 1.3450096e-038
-407.93277 -38.544827 -1863 1.335826e-038
-408.93793 -38.337933 -1853 1.326535e-038
-412.13275 -38.337933 -1853 1.3265351e-038
-413.08621 -38.131035 -1843 1.3357547e-038
-416.26379 -38.131035 -1843 1.3449743e-038
-446.56552 -37.73793 -1824 1.3449743e-038
-449.71036 -37.73793 -1824 1.3449743e-038
-450.37241 -37.531036 -1814 1.3265351e-038
-453.5 -37.531036 -1814 1.3265351e-038
-514.71722 -36.765518 -1777 1.2805812e-038
-521.25519 -36.579311 -1768 1.2805812e-038
-524.30347 -36.579311 -1768 1.2805812e-038
-527.35175 -36.579311 -1768 1.2805812e-038
-530.73279 -36.393105 -1759 1.2805808e-038
-540.08618 -36.206898 -1750 1.2989831e-038
-543.10345 -36.206898 -1750 1.2989831e-038
-546.12067 -36.206898 -1750 1.2897638e-038
-549.13794 -36.206898 -1750 1.2805084e-038
-552.15515 -36.206898 -1750 1.2805085e-038
-552.31726 -36.020691 -1741 1.3081315e-038
-555.31897 -36.020691 -1741 1.3081316e-038
-555.43451 -35.834484 -1732 1.3081316e-038
-558.42072 -35.834484 -1732 1.308096e-038
-561.40692 -35.834484 -1732 1.308096e-038
-564.39313 -35.834484 -1732 1.3080603e-038
-585.46552 -35.482758 -1715 1.2805812e-038
-588.42242 -35.482758 -1715 1.2805812e-038
-591.37933 -35.482758 -1715 1.2805812e-038
-591.21722 -35.296551 -1706 1.2621421e-038
-611.89655 -34.965519 -1690 1.2436318e-038
-614.81036 -34.965519 -1690 1.2436675e-038
-617.72412 -34.965519 -1690 1.2436674e-038
-617.33276 -34.779312 -1681 1.2437031e-038
-620.23102 -34.779312 -1681 1.2437031e-038
-620.16382 -34.613792 -1673 1.243703e-038
-623.04828 -34.613792 -1673 1.2529224e-038
-625.93274 -34.613792 -1673 1.2621417e-038
-637.08795 -34.282757 -1657 1.2622133e-038
-639.94482 -34.282757 -1657 1.2437028e-038
-639.6983 -34.117241 -1649 1.243703e-038
-642.54138 -34.117241 -1649 1.243703e-038
-645.38446 -34.117241 -1649 1.243703e-038
-647.91205 -33.951725 -1641 1.243703e-038
-650.74139 -33.951725 -1641 1.243703e-038
-653.57068 -33.951725 -1641 1.243703e-038
-659.2345 -33.806896 -1634 1.243703e-038
-675.09656 -33.475861 -1618 1.2344121e-038
-677.88623 -33.475861 -1618 1.2528512e-038
-677.73102 -33.331036 -1611 1.2528512e-038
-693.43451 -33.020691 -1596 1.2344121e-038
-696.18622 -33.020691 -1596 1.2344121e-038
-695.87244 -32.875862 -1589 1.2252285e-038
-698.61206 -32.875862 -1589 1.215973e-038
-697.82068 -32.710346 -1581 1.1976779e-038
-700.54657 -32.710346 -1581 1.1977138e-038
-703.2724 -32.710346 -1581 1.2069333e-038
-728.89655 -32.275864 -1560 1.1700551e-038
-731.58618 -32.275864 -1560 1.1976423e-038
-734.27588 -32.275864 -1560 1.1976423e-038
-733.65863 -32.131035 -1553 1.1792032e-038
-736.33618 -32.131035 -1553 1.1699836e-038
-739.01379 -32.131035 -1553 1.1699836e-038
-738.34827 -31.986206 -1546 1.1792032e-038
-741.01379 -31.986206 -1546 1.1976423e-038
-743.67932 -31.986206 -1546 1.2068619e-038
-746.34485 -31.986206 -1546 1.2068619e-038
-745.61896 -31.841379 -1539 1.1976423e-038
-748.2724 -31.841379 -1539 1.1792032e-038
-773.92413 -31.696552 -1532 1.1976068e-038
-773.01721 -31.551723 -1525 1.1883873e-038
-775.64655 -31.551723 -1525 1.1883873e-038
83.710342 -51.82069 -2312 1.3908907e-038
71.286209 -51.484482 -2297 1.4093301e-038
67.325859 -51.484482 -2297 1.3909628e-038
23.296553 -50.475861 -2252 1.3266418e-038
19.413794 -50.475861 -2252 1.3266418e-038
15.531034 -50.475861 -2252 1.3266418e-038
11.570689 -50.139656 -2237 1.3266418e-038
7.7137933 -50.139656 -2237 1.3266418e-038
-49.175861 -49.175861 -2194 1.3358259e-038
-52.958622 -49.175861 -2194 1.3358257e-038
-56.405174 -48.884483 -2181 1.3450452e-038
-60.165516 -48.884483 -2181 1.3450809e-038
-63.925861 -48.884483 -2181 1.3450809e-038
-110.68965 -47.965519 -2140 1.3082026e-038
-114.37931 -47.965519 -2140 1.3174223e-038
-117.35172 -47.674137 -2127 1.344974e-038
-152.14137 -47.091381 -2101 1.3634134e-038
-155.76379 -47.091381 -2101 1.3726329e-038
-158.39999 -46.799999 -2088 1.3726329e-038
-162 -46.799999 -2088 1.3634134e-038
-165.60001 -46.799999 -2088 1.3541937e-038
-168.22758 -46.531036 -2076 1.3634488e-038
-171.8069 -46.531036 -2076 1.3542651e-038
-175.3862 -46.531036 -2076 1.354265e-038
-177.84483 -46.239655 -2063 1.3358259e-038
-181.40172 -46.239655 -2063 1.3266063e-038
-184.95862 -46.239655 -2063 1.3266063e-038
-190.95517 -45.970688 -2051 1.354265e-038
-194.49138 -45.970688 -2051 1.354265e-038
-200.38448 -45.701725 -2039 1.3450454e-038
-203.89999 -45.701725 -2039 1.3450454e-038
-207.41551 -45.701725 -2039 1.3450454e-038
-210.93103 -45.701725 -2039 1.3450454e-038
-236.24138 -45.163792 -2015 1.3358259e-038
-239.71552 -45.163792 -2015 1.3358259e-038
-243.18965 -45.163792 -2015 1.3358259e-038
-245.19482 -44.894829 -2003 1.3450454e-038
-248.64827 -44.894829 -2003 1.3450454e-038
-252.10173 -44.894829 -2003 1.354265e-038
-254.15172 -44.648277 -1992 1.3727041e-038
-257.58621 -44.648277 -1992 1.3819237e-038
-261.02069 -44.648277 -1992 1.3819237e-038
-264.45517 -44.648277 -1992 1.3727041e-038
-266.27585 -44.379311 -1980 1.354265e-038
-269.68967 -44.379311 -1980 1.354265e-038
-273.10345 -44.379311 -1980 1.3634131e-038
-274.98105 -44.132759 -1969 1.3634134e-038
-278.37585 -44.132759 -1969 1.3634134e-038
-281.77069 -44.132759 -1969 1.3634134e-038
-312.19138 -43.639656 -1947 1.3265351e-038
-313.7655 -43.393105 -1936 1.3173156e-038
-317.10345 -43.393105 -1936 1.3265351e-038
-320.44138 -43.393105 -1936 1.3634134e-038
-321.93967 -43.146553 -1925 1.3634134e-038
-325.25861 -43.146553 -1925 1.3634134e-038
-328.57758 -43.146553 -1925 1.3634134e-038
-344.68967 -42.675861 -1904 1.3449743e-038
-347.97241 -42.675861 -1904 1.3449743e-038
-351.25516 -42.675861 -1904 1.3357547e-038
-352.67587 -42.451725 -1894 1.3357547e-038
-355.94138 -42.451725 -1894 1.3265351e-038
-359.20691 -42.451725 -1894 1.3173514e-038
-381.05862 -41.981033 -1873 1.3081672e-038
-384.28793 -41.981033 -1873 1.3173868e-038
-387.51724 -41.981033 -1873 1.3266063e-038
-395.08447 -41.756897 -1863 1.3358259e-038
-398.29654 -41.756897 -1863 1.3358259e-038
-401.50861 -41.756897 -1863 1.3358259e-038
-404.7207 -41.756897 -1863 1.3358259e-038
-407.93277 -41.756897 -1863 1.33579e-038
-408.93793 -41.532757 -1853 1.3265709e-038
-412.13275 -41.532757 -1853 1.3357546e-038
-413.08621 -41.30862 -1843 1.3449743e-038
-416.26379 -41.30862 -1843 1.3634134e-038
-419.44138 -41.30862 -1843 1.3634134e-038
-446.56552 -40.882759 -1824 1.3449743e-038
-449.71036 -40.882759 -1824 1.3541938e-038
-450.37241 -40.658619 -1814 1.3541938e-038
-453.5 -40.658619 -1814 1.3357547e-038
-482.79309 -40.232758 -1795 1.3726329e-038
-485.88794 -40.232758 -1795 1.3541938e-038
-495.76895 -40.031036 -1786 1.2990204e-038
-498.84827 -40.031036 -1786 1.2990204e-038
-501.92758 -40.031036 -1786 1.2990204e-038
-514.71722 -39.829311 -1777 1.2805812e-038
-521.25519 -39.627586 -1768 1.2805812e-038
-524.30347 -39.627586 -1768 1.2805812e-038
-527.35175 -39.627586 -1768 1.2805812e-038
-527.70001 -39.425861 -1759 1.2805812e-038
-530.73279 -39.425861 -1759 1.2805808e-038
-533.7655 -39.425861 -1759 1.2806157e-038
-537.06897 -39.224136 -1750 1.3082381e-038
-540.08618 -39.224136 -1750 1.3174219e-038
-543.10345 -39.224136 -1750 1.3174221e-038
-546.12067 -39.224136 -1750 1.3082026e-038
-549.13794 -39.224136 -1750 1.2897638e-038
-549.31549 -39.022415 -1741 1.2989475e-038
-555.43451 -38.82069 -1732 1.3081319e-038
-558.42072 -38.82069 -1732 1.3080961e-038
-561.40692 -38.82069 -1732 1.3080603e-038
-582.50861 -38.439655 -1715 1.2805812e-038
-585.46552 -38.439655 -1715 1.2898008e-038
-588.42242 -38.439655 -1715 1.2898008e-038
-591.37933 -38.439655 -1715 1.2898008e-038
-591.21722 -38.23793 -1706 1.2805812e-038
-608.98279 -37.879311 -1690 1.2528512e-038
-611.89655 -37.879311 -1690 1.2528512e-038
-614.81036 -37.879311 -1690 1.2528512e-038
-614.43451 -37.677586 -1681 1.2528869e-038
-617.33276 -37.677586 -1681 1.2528868e-038
-617.2793 -37.498276 -1673 1.2529225e-038
-620.16382 -37.498276 -1673 1.2529224e-038
-620.06897 -37.318966 -1665 1.2529223e-038
-637.08795 -37.139656 -1657 1.2714327e-038
-639.94482 -37.139656 -1657 1.243703e-038
-639.6983 -36.960346 -1649 1.243703e-038
-642.54138 -36.960346 -1649 1.243703e-038
-645.38446 -36.960346 -1649 1.243703e-038
-648.2276 -36.960346 -1649 1.243703e-038
-647.91205 -36.781036 -1641 1.243703e-038
-650.74139 -36.781036 -1641 1.243703e-038
-653.57068 -36.781036 -1641 1.243703e-038
-675.09656 -36.265518 -1618 1.2528512e-038
-677.88623 -36.265518 -1618 1.2620708e-038
-677.73102 -36.10862 -1611 1.2712903e-038
-696.18622 -35.772415 -1596 1.2344121e-038
-698.93793 -35.772415 -1596 1.2252285e-038
-698.61206 -35.615517 -1589 1.216009e-038
-697.82068 -35.436207 -1581 1.1976779e-038
-700.54657 -35.436207 -1581 1.1977138e-038
-703.2724 -35.436207 -1581 1.2069333e-038
-728.89655 -34.965519 -1560 1.1792746e-038
-731.58618 -34.965519 -1560 1.1976423e-038
-734.27588 -34.965519 -1560 1.1976423e-038
-733.65863 -34.80862 -1553 1.1792032e-038
-736.33618 -34.80862 -1553 1.1699836e-038
-738.34827 -34.651726 -1546 1.1792032e-038
-741.01379 -34.651726 -1546 1.1976423e-038
-743.67932 -34.651726 -1546 1.2068619e-038
-745.61896 -34.494827 -1539 1.1976423e-038
-748.2724 -34.494827 -1539 1.1792032e-038
-767.75861 -34.181034 -1525 1.1976068e-038
-770.38794 -34.181034 -1525 1.1976068e-038
-773.01721 -34.181034 -1525 1.1883873e-038
-772.59485 -34.046551 -1519 1.1883873e-038
83.710342 -55.806896 -2312 1.3724516e-038
71.286209 -55.444828 -2297 1.390927e-038
67.325859 -55.444828 -2297 1.3725597e-038
23.296553 -54.35862 -2252 1.3266418e-038
19.413794 -54.35862 -2252 1.3266418e-038
15.531034 -54.35862 -2252 1.3266418e-038
11.570689 -53.996552 -2237 1.3266418e-038
7.7137933 -53.996552 -2237 1.3266418e-038
-45.393105 -52.958622 -2194 1.3450454e-038
-49.175861 -52.958622 -2194 1.3450454e-038
-52.958622 -52.958622 -2194 1.3450454e-038
-56.405174 -52.644829 -2181 1.345081e-038
-60.165516 -52.644829 -2181 1.3450809e-038
-110.68965 -51.655174 -2140 1.3082028e-038
-114.37931 -51.655174 -2140 1.3174225e-038
-117.35172 -51.341381 -2127 1.344974e-038
-155.76379 -50.713795 -2101 1.3541938e-038
-158.39999 -50.400002 -2088 1.3541938e-038
-162 -50.400002 -2088 1.3541578e-038
-165.60001 -50.400002 -2088 1.3357546e-038
-168.22758 -50.110344 -2076 1.3450098e-038
-171.8069 -50.110344 -2076 1.354265e-038
-175.3862 -50.110344 -2076 1.354265e-038
-178.96552 -50.110344 -2076 1.3358259e-038
-181.40172 -49.796551 -2063 1.3266063e-038
-184.95862 -49.796551 -2063 1.3266063e-038
-190.95517 -49.506897 -2051 1.354265e-038
-194.49138 -49.506897 -2051 1.354265e-038
-198.02759 -49.506897 -2051 1.3450454e-038
-200.38448 -49.217243 -2039 1.3450454e-038
-203.89999 -49.217243 -2039 1.3450454e-038
-207.41551 -49.217243 -2039 1.3450454e-038
-232.76724 -48.637932 -2015 1.3357899e-038
-236.24138 -48.637932 -2015 1.3266063e-038
-239.71552 -48.637932 -2015 1.3357899e-038
-241.74138 -48.348274 -2003 1.3266063e-038
-245.19482 -48.348274 -2003 1.3358259e-038
-248.64827 -48.348274 -2003 1.3450454e-038
-252.10173 -48.348274 -2003 1.354265e-038
-254.15172 -48.08276 -1992 1.3727041e-038
-257.58621 -48.08276 -1992 1.3819237e-038
-261.02069 -48.08276 -1992 1.3819237e-038
-264.45517 -48.08276 -1992 1.3727041e-038
-266.27585 -47.793102 -1980 1.354265e-038
-269.68967 -47.793102 -1980 1.354265e-038
-273.10345 -47.793102 -1980 1.3634131e-038
-274.98105 -47.527588 -1969 1.363449e-038
-278.37585 -47.527588 -1969 1.3634134e-038
-281.77069 -47.527588 -1969 1.3634134e-038
-308.83447 -46.996552 -1947 1.3265351e-038
-312.19138 -46.996552 -1947 1.3173514e-038
-313.7655 -46.731033 -1936 1.3173156e-038
-317.10345 -46.731033 -1936 1.3173156e-038
-318.6207 -46.465519 -1925 1.3634134e-038
-321.93967 -46.465519 -1925 1.3634134e-038
-325.25861 -46.465519 -1925 1.3634134e-038
-344.68967 -45.958622 -1904 1.3449743e-038
-347.97241 -45.958622 -1904 1.3357547e-038
-349.41034 -45.717243 -1894 1.3357547e-038
-352.67587 -45.717243 -1894 1.3265351e-038
-355.94138 -45.717243 -1894 1.3173156e-038
-359.20691 -45.717243 -1894 1.3173156e-038
-381.05862 -45.210346 -1873 1.2897281e-038
-384.28793 -45.210346 -1873 1.3081672e-038
-387.51724 -45.210346 -1873 1.3266063e-038
-391.87241 -44.968964 -1863 1.3266063e-038
-395.08447 -44.968964 -1863 1.3266063e-038
-398.29654 -44.968964 -1863 1.3266063e-038
-405.7431 -44.727585 -1853 1.3266065e-038
-408.93793 -44.727585 -1853 1.3357903e-038
-409.90863 -44.486206 -1843 1.3449741e-038
-413.08621 -44.486206 -1843 1.3634132e-038
-416.26379 -44.486206 -1843 1.3634134e-038
-446.56552 -44.027588 -1824 1.3541938e-038
-449.71036 -44.027588 -1824 1.3541938e-038
-450.37241 -43.786205 -1814 1.3541938e-038
-482.79309 -43.327587 -1795 1.3726688e-038
-485.88794 -43.327587 -1795 1.3726328e-038
-488.98276 -43.327587 -1795 1.3541937e-038
-489.61035 -43.110344 -1786 1.3173876e-038
-492.68967 -43.110344 -1786 1.3082039e-038
-495.76895 -43.110344 -1786 1.2990204e-038
-498.84827 -43.110344 -1786 1.2990204e-038
-518.20691 -42.675861 -1768 1.2805812e-038
-521.25519 -42.675861 -1768 1.2805812e-038
-524.30347 -42.675861 -1768 1.2805812e-038
-524.66724 -42.458622 -1759 1.2805812e-038
-527.70001 -42.458622 -1759 1.2805809e-038
