# .PCD v0.7 - Point Cloud Data file format
VERSION 0.7
FIELDS x y z rgb
SIZE 4 4 4 4
TYPE F F F F
COUNT 1 1 1 1
WIDTH 1178
HEIGHT 1
VIEWPOINT 0 0 0 1 0 0 0
POINTS 1178
DATA ascii
150.41896 181.27414 -2237 1.1972442e-038
146.56207 181.27414 -2237 1.1880248e-038
143.66206 182.48965 -2252 1.1880249e-038
139.77931 182.48965 -2252 1.2156479e-038
135.89655 182.48965 -2252 1.2156837e-038
132.83449 183.62415 -2266 1.2064283e-038
99.008621 186.1362 -2297 1.1880604e-038
95.668968 187.35173 -2312 1.1880604e-038
91.682762 187.35173 -2312 1.1511821e-038
718.32416 116.34827 -1467 1.0778203e-038
715.7948 116.34827 -1467 1.0778209e-038
716.18274 116.82413 -1473 1.0869687e-038
717.03448 117.37931 -1480 1.0961883e-038
714.48279 117.37931 -1480 1.1146274e-038
707.41382 118.33103 -1492 1.068672e-038
704.84137 118.33103 -1492 1.041049e-038
705.56378 118.88621 -1499 1.0410131e-038
702.97931 118.88621 -1499 1.0961509e-038
700.39484 118.88621 -1499 1.123774e-038
701.06897 119.44138 -1506 1.1329935e-038
698.47241 119.44138 -1506 1.1329935e-038
695.87585 119.44138 -1506 1.1145544e-038
693.2793 119.44138 -1506 1.1145544e-038
693.43451 119.91724 -1512 1.123774e-038
690.82758 119.91724 -1512 1.1422131e-038
688.2207 119.91724 -1512 1.1514327e-038
688.7879 120.47241 -1519 1.1422131e-038
686.16895 120.47241 -1519 1.1422131e-038
686.25 120.94827 -1525 1.1329935e-038
683.62067 120.94827 -1525 1.1329935e-038
684.11725 121.50345 -1532 1.123774e-038
681.47589 121.50345 -1532 1.123774e-038
681.93622 122.05862 -1539 1.1237737e-038
669.0448 122.61379 -1546 1.086967e-038
666.37933 122.61379 -1546 1.0685279e-038
666.71899 123.16897 -1553 1.086967e-038
664.04138 123.16897 -1553 1.1330649e-038
661.36377 123.16897 -1553 1.1330649e-038
661.65515 123.72414 -1560 1.1238453e-038
661.92242 124.27931 -1567 1.1054062e-038
659.2207 124.27931 -1567 1.0961866e-038
656.51898 124.27931 -1567 1.0961866e-038
656.73792 124.83448 -1574 1.1054062e-038
654.02411 124.83448 -1574 1.0961869e-038
651.31036 124.83448 -1574 1.0960794e-038
651.48102 125.38966 -1581 1.1052637e-038
648.75519 125.38966 -1581 1.1421419e-038
646.0293 125.38966 -1581 1.1513615e-038
646.55859 126.02414 -1589 1.1329223e-038
643.81897 126.02414 -1589 1.1052637e-038
643.90344 126.57931 -1596 1.1052637e-038
641.15173 126.57931 -1596 1.1052637e-038
638.40002 126.57931 -1596 1.1052637e-038
635.64825 126.57931 -1596 1.077605e-038
635.67242 127.13448 -1603 1.077605e-038
632.90863 127.13448 -1603 1.077605e-038
630.14484 127.13448 -1603 1.077605e-038
627.38104 127.13448 -1603 1.077605e-038
627.7345 127.76897 -1611 1.077605e-038
624.95691 127.76897 -1611 1.0868245e-038
622.17932 127.76897 -1611 1.0960441e-038
619.40173 127.76897 -1611 1.0960441e-038
619.30347 128.32414 -1618 1.1052637e-038
616.51379 128.32414 -1618 1.1144832e-038
605.70691 129.59311 -1634 1.1237028e-038
602.88965 129.59311 -1634 1.1329223e-038
600.07239 129.59311 -1634 1.1421419e-038
599.81378 130.14827 -1641 1.1421419e-038
599.89484 130.78276 -1649 1.1329223e-038
597.0517 130.78276 -1649 1.1144832e-038
594.20862 130.78276 -1649 1.1144832e-038
594.2345 131.41724 -1657 1.1237028e-038
594.23279 132.05173 -1665 1.1329223e-038
591.36206 132.05173 -1665 1.1421419e-038
588.49139 132.05173 -1665 1.1421419e-038
585.54999 132.6862 -1673 1.1329223e-038
582.66553 132.6862 -1673 1.1237028e-038
579.78101 132.6862 -1673 1.1237028e-038
579.65515 133.32069 -1681 1.1237028e-038
576.7569 133.32069 -1681 1.1329223e-038
573.85864 133.32069 -1681 1.1513615e-038
574.01721 134.03448 -1690 1.160581e-038
571.10345 134.03448 -1690 1.160581e-038
568.18964 134.03448 -1690 1.1513615e-038
565.02411 134.66896 -1698 1.1237385e-038
562.09656 134.66896 -1698 1.1237381e-038
559.16895 134.66896 -1698 1.123774e-038
558.86206 135.30345 -1706 1.1421774e-038
555.92072 135.30345 -1706 1.1513615e-038
552.97931 135.30345 -1706 1.1605453e-038
549.98279 136.01724 -1715 1.1512545e-038
547.02588 136.01724 -1715 1.1420351e-038
541.11206 136.01724 -1715 1.1328513e-038
540.66553 136.65172 -1723 1.132851e-038
537.69482 136.65172 -1723 1.1421063e-038
519.59998 137.36552 -1732 1.1605796e-038
519.29828 138.07932 -1741 1.1697633e-038
516.29657 138.07932 -1741 1.1697993e-038
515.9483 138.79311 -1750 1.178983e-038
515.56897 139.5069 -1759 1.1789832e-038
512.53619 139.5069 -1759 1.169728e-038
509.50345 139.5069 -1759 1.1605087e-038
490.20691 140.93448 -1777 1.1696923e-038
489.61035 141.64827 -1786 1.169728e-038
486.53104 141.64827 -1786 1.1789476e-038
475.88275 143.07587 -1804 1.1696567e-038
472.7724 143.07587 -1804 1.1880601e-038
469.66208 143.07587 -1804 1.1972796e-038
466.55173 143.07587 -1804 1.1972442e-038
466.01035 143.86897 -1814 1.1972442e-038
465.43448 144.66206 -1824 1.1972443e-038
462.28964 144.66206 -1824 1.1972087e-038
458.25 145.37585 -1833 1.1880245e-038
451.21725 146.16896 -1843 1.1604371e-038
448.03964 146.16896 -1843 1.1604371e-038
444.86206 146.16896 -1843 1.1604371e-038
444.08102 146.96207 -1853 1.1604371e-038
440.8862 146.96207 -1853 1.1604371e-038
426.26895 148.54828 -1873 1.1880958e-038
423.03964 148.54828 -1873 1.1880958e-038
419.81033 148.54828 -1873 1.1788762e-038
418.80518 149.34138 -1883 1.1696924e-038
415.55862 149.34138 -1883 1.1605084e-038
412.31207 149.34138 -1883 1.1513246e-038
411.45517 150.21379 -1894 1.1421051e-038
408.18967 150.21379 -1894 1.1328856e-038
407.06207 151.0069 -1904 1.1328856e-038
403.7793 151.0069 -1904 1.1420693e-038
400.49655 151.0069 -1904 1.1604371e-038
399.50861 151.8793 -1915 1.1696567e-038
396.20691 151.8793 -1915 1.1696568e-038
373.84827 153.54483 -1936 1.1420337e-038
370.51035 153.54483 -1936 1.1605084e-038
369.25861 154.41724 -1947 1.1973867e-038
365.90173 154.41724 -1947 1.1973867e-038
364.59311 155.28966 -1958 1.1881671e-038
361.21725 155.28966 -1958 1.1605084e-038
348.20691 157.03448 -1980 1.1605084e-038
344.79309 157.03448 -1980 1.1605084e-038
341.3793 157.03448 -1980 1.1973867e-038
340.01379 157.98621 -1992 1.1973867e-038
336.57932 157.98621 -1992 1.1973867e-038
334.9845 158.85863 -2003 1.1880955e-038
331.53104 158.85863 -2003 1.1880958e-038
328.07758 158.85863 -2003 1.1880958e-038
324.62415 158.85863 -2003 1.1880958e-038
323.09482 159.81035 -2015 1.1880958e-038
319.6207 159.81035 -2015 1.1880958e-038
316.14655 159.81035 -2015 1.1880958e-038
314.53448 160.76207 -2027 1.1880958e-038
311.03964 160.76207 -2027 1.1880958e-038
309.36551 161.71379 -2039 1.1973154e-038
305.85001 161.71379 -2039 1.1973154e-038
304.1138 162.66551 -2051 1.1788762e-038
300.57758 162.66551 -2051 1.1604371e-038
280.99484 163.61725 -2063 1.1880246e-038
277.43793 163.61725 -2063 1.1880246e-038
273.88104 163.61725 -2063 1.1880246e-038
272.02759 164.64827 -2076 1.1880246e-038
270 165.60001 -2088 1.1880246e-038
266.39999 165.60001 -2088 1.1880246e-038
234.70345 168.6931 -2127 1.1605084e-038
227.36897 168.6931 -2127 1.1697637e-038
221.3793 169.72414 -2140 1.1697637e-038
219.01207 170.75517 -2153 1.1697637e-038
215.3 170.75517 -2153 1.1605442e-038
211.58794 170.75517 -2153 1.1605442e-038
207.87585 170.75517 -2153 1.1605442e-038
205.49138 171.86552 -2167 1.1697637e-038
201.75517 171.86552 -2167 1.1697637e-038
198.01897 171.86552 -2167 1.1789833e-038
195.53793 172.97586 -2181 1.1789833e-038
191.77759 172.97586 -2181 1.1882029e-038
188.01724 172.97586 -2181 1.1882029e-038
184.2569 172.97586 -2181 1.1882031e-038
180.49655 172.97586 -2181 1.178912e-038
177.78966 174.0069 -2194 1.178912e-038
174.0069 174.0069 -2194 1.1788761e-038
171.31035 175.11725 -2208 1.1512176e-038
167.50345 175.11725 -2208 1.1512176e-038
164.80862 176.3069 -2223 1.1880601e-038
160.97586 176.3069 -2223 1.2065354e-038
158.13275 177.41724 -2237 1.2157192e-038
154.27586 177.41724 -2237 1.2157192e-038
150.41896 177.41724 -2237 1.1972442e-038
146.56207 177.41724 -2237 1.1880248e-038
143.66206 178.6069 -2252 1.1880249e-038
139.77931 178.6069 -2252 1.2156479e-038
135.89655 178.6069 -2252 1.2156479e-038
132.83449 179.71724 -2266 1.2064283e-038
95.668968 183.36552 -2312 1.1880604e-038
91.682762 183.36552 -2312 1.1604017e-038
718.32416 113.81896 -1467 1.105515e-038
715.7948 113.81896 -1467 1.0961883e-038
716.18274 114.28448 -1473 1.0870047e-038
713.64313 114.28448 -1473 1.0961883e-038
717.37933 115.29311 -1486 1.105408e-038
714.81726 115.29311 -1486 1.1146633e-038
709.98621 115.75862 -1492 1.0962952e-038
707.41382 115.75862 -1492 1.0686721e-038
704.84137 115.75862 -1492 1.0502328e-038
705.56378 116.30173 -1499 1.0502328e-038
702.97931 116.30173 -1499 1.11459e-038
700.39484 116.30173 -1499 1.1237741e-038
701.06897 116.84483 -1506 1.1329935e-038
698.47241 116.84483 -1506 1.1422131e-038
698.64825 117.31035 -1512 1.1329937e-038
696.04138 117.31035 -1512 1.123774e-038
693.43451 117.31035 -1512 1.1145544e-038
690.82758 117.31035 -1512 1.1145544e-038
688.2207 117.31035 -1512 1.1145544e-038
688.7879 117.85345 -1519 1.1237741e-038
686.16895 117.85345 -1519 1.1329935e-038
686.25 118.31896 -1525 1.1329937e-038
686.75861 118.86207 -1532 1.1329937e-038
684.11725 118.86207 -1532 1.1329935e-038
681.47589 118.86207 -1532 1.123774e-038
669.0448 119.94827 -1546 1.068492e-038
666.37933 119.94827 -1546 1.0500889e-038
666.71899 120.49138 -1553 1.0500889e-038
664.04138 120.49138 -1553 1.1238454e-038
664.34485 121.03448 -1560 1.1238454e-038
661.65515 121.03448 -1560 1.1054063e-038
661.92242 121.57758 -1567 1.0961866e-038
659.2207 121.57758 -1567 1.0869672e-038
656.51898 121.57758 -1567 1.0961507e-038
656.73792 122.12069 -1574 1.0961509e-038
654.02411 122.12069 -1574 1.096151e-038
651.31036 122.12069 -1574 1.0960794e-038
651.48102 122.6638 -1581 1.1052637e-038
648.75519 122.6638 -1581 1.1329223e-038
646.0293 122.6638 -1581 1.1329223e-038
646.55859 123.28448 -1589 1.1052637e-038
643.81897 123.28448 -1589 1.0960441e-038
643.90344 123.82758 -1596 1.0960441e-038
641.15173 123.82758 -1596 1.0960441e-038
638.40002 123.82758 -1596 1.0960441e-038
632.90863 124.37069 -1603 1.077605e-038
630.14484 124.37069 -1603 1.077605e-038
627.38104 124.37069 -1603 1.077605e-038
627.7345 124.99138 -1611 1.077605e-038
624.95691 124.99138 -1611 1.0868245e-038
622.17932 124.99138 -1611 1.0868245e-038
619.40173 124.99138 -1611 1.0960441e-038
619.30347 125.53448 -1618 1.0960441e-038
605.70691 126.77586 -1634 1.1144832e-038
602.88965 126.77586 -1634 1.1237028e-038
600.07239 126.77586 -1634 1.1329223e-038
599.81378 127.31896 -1641 1.1421419e-038
599.89484 127.93965 -1649 1.1421419e-038
597.0517 127.93965 -1649 1.1329223e-038
597.09137 128.56035 -1657 1.1329223e-038
594.2345 128.56035 -1657 1.1421419e-038
594.23279 129.18103 -1665 1.1513615e-038
591.36206 129.18103 -1665 1.160581e-038
588.49139 129.18103 -1665 1.1513615e-038
585.54999 129.80173 -1673 1.1329223e-038
582.66553 129.80173 -1673 1.1144832e-038
579.78101 129.80173 -1673 1.1144832e-038
579.65515 130.42241 -1681 1.1237028e-038
576.7569 130.42241 -1681 1.1329223e-038
573.85864 130.42241 -1681 1.1513615e-038
571.10345 131.1207 -1690 1.160581e-038
568.18964 131.1207 -1690 1.1513615e-038
565.02411 131.74138 -1698 1.1237385e-038
562.09656 131.74138 -1698 1.1237381e-038
559.16895 131.74138 -1698 1.123774e-038
556.24139 131.74138 -1698 1.1421774e-038
555.92072 132.36208 -1706 1.1513615e-038
552.97931 132.36208 -1706 1.1605453e-038
552.93964 133.06035 -1715 1.1605456e-038
549.98279 133.06035 -1715 1.1512545e-038
543.63623 133.68103 -1723 1.1236317e-038
540.66553 133.68103 -1723 1.1144478e-038
519.87067 133.68103 -1723 1.1513601e-038
519.59998 134.3793 -1732 1.1605796e-038
519.29828 135.07759 -1741 1.1605796e-038
516.29657 135.07759 -1741 1.178983e-038
515.9483 135.77586 -1750 1.1789832e-038
515.56897 136.47414 -1759 1.1882027e-038
512.53619 136.47414 -1759 1.1789834e-038
509.50345 136.47414 -1759 1.1604727e-038
493.27069 137.8707 -1777 1.1604371e-038
490.20691 137.8707 -1777 1.1696924e-038
489.61035 138.56897 -1786 1.178912e-038
475.88275 139.96552 -1804 1.1788762e-038
472.7724 139.96552 -1804 1.1788762e-038
469.66208 139.96552 -1804 1.1880959e-038
469.13794 140.74138 -1814 1.1788764e-038
468.57932 141.51724 -1824 1.1788764e-038
465.43448 141.51724 -1824 1.1788408e-038
462.28964 141.51724 -1824 1.1788408e-038
455.08966 142.21552 -1833 1.1604371e-038
451.21725 142.99138 -1843 1.1512176e-038
448.03964 142.99138 -1843 1.1512176e-038
444.86206 142.99138 -1843 1.1512176e-038
441.68448 142.99138 -1843 1.1512176e-038
440.8862 143.76724 -1853 1.1512176e-038
437.69138 143.76724 -1853 1.1512176e-038
434.49655 143.76724 -1853 1.1512176e-038
430.41724 144.54311 -1863 1.1696567e-038
427.20517 144.54311 -1863 1.1880958e-038
426.26895 145.31897 -1873 1.1880958e-038
423.03964 145.31897 -1873 1.1788762e-038
419.81033 145.31897 -1873 1.1696567e-038
418.80518 146.09483 -1883 1.1604729e-038
415.55862 146.09483 -1883 1.1512889e-038
412.31207 146.09483 -1883 1.1421052e-038
411.45517 146.94827 -1894 1.1421051e-038
408.18967 146.94827 -1894 1.1328856e-038
407.06207 147.72414 -1904 1.1420693e-038
403.7793 147.72414 -1904 1.151253e-038
400.49655 147.72414 -1904 1.1696567e-038
399.50861 148.57759 -1915 1.1696567e-038
396.20691 148.57759 -1915 1.1696567e-038
377.18622 150.20689 -1936 1.1419625e-038
373.84827 150.20689 -1936 1.1420337e-038
370.51035 150.20689 -1936 1.1605084e-038
369.25861 151.06035 -1947 1.1789476e-038
365.90173 151.06035 -1947 1.1881671e-038
364.59311 151.91379 -1958 1.1881671e-038
361.21725 151.91379 -1958 1.169728e-038
359.85172 152.76724 -1969 1.1605084e-038
356.45691 152.76724 -1969 1.1605084e-038
353.06207 152.76724 -1969 1.169728e-038
348.20691 153.6207 -1980 1.1605084e-038
344.79309 153.6207 -1980 1.1605084e-038
341.3793 153.6207 -1980 1.1881671e-038
340.01379 154.55173 -1992 1.1881671e-038
336.57932 154.55173 -1992 1.169728e-038
334.9845 155.40517 -2003 1.169728e-038
331.53104 155.40517 -2003 1.1880958e-038
328.07758 155.40517 -2003 1.1880958e-038
324.62415 155.40517 -2003 1.1880958e-038
323.09482 156.33621 -2015 1.1880958e-038
319.6207 156.33621 -2015 1.1880958e-038
316.14655 156.33621 -2015 1.1880958e-038
314.53448 157.26724 -2027 1.1880958e-038
311.03964 157.26724 -2027 1.1880958e-038
309.36551 158.19827 -2039 1.1880958e-038
305.85001 158.19827 -2039 1.1788762e-038
304.1138 159.1293 -2051 1.1604371e-038
300.57758 159.1293 -2051 1.1512176e-038
279.18622 161.06897 -2076 1.1880246e-038
275.6069 161.06897 -2076 1.1880246e-038
273.60001 162 -2088 1.1880246e-038
270 162 -2088 1.1880246e-038
266.39999 162 -2088 1.1880246e-038
234.70345 165.02586 -2127 1.1789117e-038
227.36897 165.02586 -2127 1.1697637e-038
223.70172 165.02586 -2127 1.1697639e-038
221.3793 166.03448 -2140 1.1697639e-038
217.68965 166.03448 -2140 1.1697637e-038
215.3 167.04311 -2153 1.1697279e-038
211.58794 167.04311 -2153 1.1605442e-038
207.87585 167.04311 -2153 1.1605443e-038
205.49138 168.1293 -2167 1.1697637e-038
201.75517 168.1293 -2167 1.1697639e-038
198.01897 168.1293 -2167 1.1789833e-038
195.53793 169.21552 -2181 1.1882029e-038
191.77759 169.21552 -2181 1.1973866e-038
184.2569 169.21552 -2181 1.2066064e-038
180.49655 169.21552 -2181 1.1882033e-038
177.78966 170.22414 -2194 1.178912e-038
174.0069 170.22414 -2194 1.1512176e-038
170.22414 170.22414 -2194 1.141998e-038
167.50345 171.31035 -2208 1.141998e-038
164.80862 172.47414 -2223 1.1512176e-038
160.97586 172.47414 -2223 1.1880604e-038
157.1431 172.47414 -2223 1.2064996e-038
154.27586 173.56035 -2237 1.2064996e-038
150.41896 173.56035 -2237 1.1880246e-038
146.56207 173.56035 -2237 1.1788052e-038
143.66206 174.72414 -2252 1.1788053e-038
139.77931 174.72414 -2252 1.2064283e-038
135.89655 174.72414 -2252 1.2064283e-038
132.83449 175.81035 -2266 1.1972087e-038
99.008621 178.21552 -2297 1.1880604e-038
95.668968 179.3793 -2312 1.1880604e-038
91.682762 179.3793 -2312 1.1696212e-038
718.32416 111.28966 -1467 1.1238824e-038
715.7948 111.28966 -1467 1.1146274e-038
713.2655 111.28966 -1467 1.0961883e-038
713.64313 111.74483 -1473 1.0961524e-038
711.10345 111.74483 -1473 1.0961527e-038
708.56378 111.74483 -1473 1.105408e-038
712.25519 112.73103 -1486 1.1054796e-038
707.41382 113.18621 -1492 1.0778558e-038
704.84137 113.18621 -1492 1.0594524e-038
702.26898 113.18621 -1492 1.0594524e-038
702.97931 113.71724 -1499 1.1145543e-038
700.39484 113.71724 -1499 1.123774e-038
701.06897 114.24828 -1506 1.1237741e-038
698.47241 114.24828 -1506 1.1329937e-038
698.64825 114.70345 -1512 1.1329937e-038
693.43451 114.70345 -1512 1.1145544e-038
690.82758 114.70345 -1512 1.105335e-038
691.40692 115.23448 -1519 1.105335e-038
688.7879 115.23448 -1519 1.1053351e-038
688.87933 115.68965 -1525 1.1237741e-038
686.25 115.68965 -1525 1.1329937e-038
686.75861 116.22069 -1532 1.1329937e-038
684.11725 116.22069 -1532 1.1237742e-038
681.47589 116.22069 -1532 1.1237382e-038
669.0448 117.28276 -1546 1.0684922e-038
666.37933 117.28276 -1546 1.0592725e-038
666.71899 117.81379 -1553 1.0777117e-038
664.04138 117.81379 -1553 1.1238454e-038
664.34485 118.34483 -1560 1.1238454e-038
661.65515 118.34483 -1560 1.1054063e-038
661.92242 118.87586 -1567 1.0961509e-038
659.2207 118.87586 -1567 1.0869672e-038
656.51898 118.87586 -1567 1.0961507e-038
653.81726 118.87586 -1567 1.0961509e-038
654.02411 119.4069 -1574 1.096151e-038
651.31036 119.4069 -1574 1.0960797e-038
651.48102 119.93793 -1581 1.1052637e-038
648.75519 119.93793 -1581 1.1237028e-038
646.0293 119.93793 -1581 1.1237028e-038
646.55859 120.54483 -1589 1.0960441e-038
643.81897 120.54483 -1589 1.0960441e-038
643.90344 121.07586 -1596 1.0960441e-038
638.40002 121.07586 -1596 1.1052637e-038
632.90863 121.6069 -1603 1.0960441e-038
630.14484 121.6069 -1603 1.0960441e-038
630.51208 122.21379 -1611 1.0960441e-038
630.4621 122.74483 -1618 1.0960441e-038
627.67242 122.74483 -1618 1.0960441e-038
624.88275 122.74483 -1618 1.0868245e-038
622.09308 122.74483 -1618 1.0960441e-038
622.36554 123.35172 -1626 1.0960441e-038
619.56207 123.35172 -1626 1.1052637e-038
613.9552 123.35172 -1626 1.1144832e-038
608.52411 123.95862 -1634 1.0960441e-038
605.70691 123.95862 -1634 1.0960441e-038
602.88965 123.95862 -1634 1.1144832e-038
600.07239 123.95862 -1634 1.1329223e-038
599.81378 124.48965 -1641 1.1421419e-038
599.89484 125.09655 -1649 1.1421419e-038
597.0517 125.09655 -1649 1.1421419e-038
597.09137 125.70345 -1657 1.1421419e-038
594.2345 125.70345 -1657 1.1513615e-038
591.37756 125.70345 -1657 1.160581e-038
591.36206 126.31035 -1665 1.160581e-038
588.49139 126.31035 -1665 1.1698006e-038
585.62067 126.31035 -1665 1.1513615e-038
585.54999 126.91724 -1673 1.1329223e-038
582.66553 126.91724 -1673 1.1237028e-038
579.78101 126.91724 -1673 1.1237028e-038
579.65515 127.52414 -1681 1.1237028e-038
576.7569 127.52414 -1681 1.1329223e-038
573.85864 127.52414 -1681 1.1513615e-038
570.96033 127.52414 -1681 1.160581e-038
571.10345 128.20689 -1690 1.160581e-038
568.18964 128.20689 -1690 1.1513615e-038
562.09656 128.8138 -1698 1.1237381e-038
559.16895 128.8138 -1698 1.123774e-038
556.24139 128.8138 -1698 1.1421774e-038
555.92072 129.42068 -1706 1.1513615e-038
552.97931 129.42068 -1706 1.1605453e-038
552.93964 130.10345 -1715 1.1605456e-038
543.63623 130.71034 -1723 1.1328513e-038
540.66553 130.71034 -1723 1.1144478e-038
525.57239 131.3931 -1732 1.1513601e-038
522.58618 131.3931 -1732 1.1513601e-038
519.59998 131.3931 -1732 1.1605796e-038
519.29828 132.07587 -1741 1.1605796e-038
518.96552 132.75862 -1750 1.178983e-038
515.9483 132.75862 -1750 1.1789832e-038
515.56897 133.44138 -1759 1.1882027e-038
512.53619 133.44138 -1759 1.1789833e-038
509.50345 133.44138 -1759 1.1512533e-038
493.27069 134.8069 -1777 1.1512177e-038
490.20691 134.8069 -1777 1.1788761e-038
489.61035 135.48965 -1786 1.1880959e-038
475.88275 136.85518 -1804 1.1788762e-038
472.7724 136.85518 -1804 1.1696926e-038
469.66208 136.85518 -1804 1.1696565e-038
469.13794 137.6138 -1814 1.151289e-038
468.57932 138.37242 -1824 1.1328142e-038
465.43448 138.37242 -1824 1.13285e-038
448.03964 139.8138 -1843 1.1512176e-038
444.86206 139.8138 -1843 1.1512176e-038
441.68448 139.8138 -1843 1.1512176e-038
440.8862 140.57242 -1853 1.1512176e-038
437.69138 140.57242 -1853 1.1512176e-038
434.49655 140.57242 -1853 1.1604371e-038
433.6293 141.33104 -1863 1.1696567e-038
430.41724 141.33104 -1863 1.1788762e-038
427.20517 141.33104 -1863 1.1880958e-038
423.9931 141.33104 -1863 1.1880958e-038
423.03964 142.08966 -1873 1.1696567e-038
419.81033 142.08966 -1873 1.160473e-038
418.80518 142.84828 -1883 1.1512533e-038
415.55862 142.84828 -1883 1.1420693e-038
412.31207 142.84828 -1883 1.1420692e-038
411.45517 143.68275 -1894 1.1328855e-038
410.34482 144.44138 -1904 1.1328855e-038
407.06207 144.44138 -1904 1.1420693e-038
406.11206 145.27586 -1915 1.1604726e-038
402.81033 145.27586 -1915 1.1788762e-038
399.50861 145.27586 -1915 1.1788762e-038
396.20691 145.27586 -1915 1.1512177e-038
377.18622 146.86897 -1936 1.1604015e-038
373.84827 146.86897 -1936 1.1605089e-038
370.51035 146.86897 -1936 1.1696921e-038
369.25861 147.70345 -1947 1.169728e-038
365.90173 147.70345 -1947 1.1789476e-038
362.54483 147.70345 -1947 1.1789476e-038
361.21725 148.53793 -1958 1.1789476e-038
359.85172 149.37242 -1969 1.169728e-038
356.45691 149.37242 -1969 1.169728e-038
353.06207 149.37242 -1969 1.169728e-038
351.6207 150.20689 -1980 1.169728e-038
348.20691 150.20689 -1980 1.1512889e-038
344.79309 150.20689 -1980 1.1512889e-038
341.3793 150.20689 -1980 1.1789476e-038
340.01379 151.11725 -1992 1.1789476e-038
336.57932 151.11725 -1992 1.169728e-038
334.9845 151.95172 -2003 1.169728e-038
331.53104 151.95172 -2003 1.1880958e-038
328.07758 151.95172 -2003 1.1880958e-038
326.56897 152.86208 -2015 1.1880958e-038
323.09482 152.86208 -2015 1.1880958e-038
319.6207 152.86208 -2015 1.1880958e-038
316.14655 152.86208 -2015 1.1880958e-038
314.53448 153.77242 -2027 1.1880958e-038
312.88104 154.68275 -2039 1.1880958e-038
309.36551 154.68275 -2039 1.1788762e-038
307.64999 155.59311 -2051 1.1604371e-038
304.1138 155.59311 -2051 1.1512176e-038
300.57758 155.59311 -2051 1.141998e-038
279.18622 157.48965 -2076 1.1880604e-038
275.6069 157.48965 -2076 1.1880604e-038
273.60001 158.39999 -2088 1.1880604e-038
270 158.39999 -2088 1.1880604e-038
266.39999 158.39999 -2088 1.1880604e-038
260.81378 159.3862 -2101 1.1880605e-038
257.19138 159.3862 -2101 1.2064995e-038
234.70345 161.35863 -2127 1.1881314e-038
231.03621 161.35863 -2127 1.1697281e-038
225.06897 162.34483 -2140 1.169728e-038
221.3793 162.34483 -2140 1.169728e-038
217.68965 162.34483 -2140 1.169728e-038
214 162.34483 -2140 1.1697639e-038
211.58794 163.33104 -2153 1.1789476e-038
207.87585 163.33104 -2153 1.169728e-038
205.49138 164.3931 -2167 1.1697639e-038
201.75517 164.3931 -2167 1.1789476e-038
198.01897 164.3931 -2167 1.1881671e-038
194.28276 164.3931 -2167 1.1973867e-038
190.54655 164.3931 -2167 1.2066063e-038
188.01724 165.45517 -2181 1.2066064e-038
184.2569 165.45517 -2181 1.215826e-038
177.78966 166.44138 -2194 1.1881315e-038
174.0069 166.44138 -2194 1.1512176e-038
170.22414 166.44138 -2194 1.141998e-038
167.50345 167.50345 -2208 1.141998e-038
164.80862 168.64137 -2223 1.1512176e-038
160.97586 168.64137 -2223 1.1788408e-038
157.1431 168.64137 -2223 1.1972442e-038
154.27586 169.70345 -2237 1.1972442e-038
150.41896 169.70345 -2237 1.1788052e-038
146.56207 169.70345 -2237 1.1695856e-038
143.66206 170.84138 -2252 1.1695858e-038
139.77931 170.84138 -2252 1.1972087e-038
135.89655 170.84138 -2252 1.1972087e-038
132.83449 171.90344 -2266 1.1879892e-038
128.92758 171.90344 -2266 1.1879887e-038
99.008621 174.25517 -2297 1.1880604e-038
95.668968 175.3931 -2312 1.1880604e-038
91.682762 175.3931 -2312 1.1696212e-038
718.32416 108.76035 -1467 1.1238826e-038
715.7948 108.76035 -1467 1.1146274e-038
716.18274 109.20517 -1473 1.0961526e-038
713.64313 109.20517 -1473 1.0869331e-038
711.10345 109.20517 -1473 1.0869331e-038
714.81726 110.16897 -1486 1.0961884e-038
712.25519 110.16897 -1486 1.1054078e-038
709.98621 110.61379 -1492 1.0962595e-038
707.41382 110.61379 -1492 1.077892e-038
704.84137 110.61379 -1492 1.0594525e-038
705.56378 111.13276 -1499 1.0594525e-038
706.26208 111.65173 -1506 1.0961513e-038
703.66553 111.65173 -1506 1.1052992e-038
703.86206 112.09655 -1512 1.086896e-038
701.25519 112.09655 -1512 1.0868961e-038
696.64484 112.61552 -1519 1.114519e-038
694.02588 112.61552 -1519 1.1052992e-038
691.40692 112.61552 -1519 1.0961156e-038
688.7879 112.61552 -1519 1.1052992e-038
688.87933 113.06035 -1525 1.1053351e-038
689.40002 113.57931 -1532 1.1053353e-038
669.39655 115.13621 -1553 1.0777117e-038
666.71899 115.13621 -1553 1.1145544e-038
667.03448 115.65517 -1560 1.1330291e-038
664.34485 115.65517 -1560 1.1330291e-038
661.65515 115.65517 -1560 1.1237737e-038
659.2207 116.17414 -1567 1.0961509e-038
656.51898 116.17414 -1567 1.0961509e-038
654.02411 116.6931 -1574 1.1053709e-038
651.31036 116.6931 -1574 1.114519e-038
648.59656 116.6931 -1574 1.1237387e-038
648.75519 117.21207 -1581 1.1329223e-038
646.0293 117.21207 -1581 1.1237028e-038
643.30347 117.21207 -1581 1.1052637e-038
643.81897 117.80518 -1589 1.0960441e-038
641.07928 117.80518 -1589 1.1144832e-038
630.14484 118.8431 -1603 1.1144832e-038
627.38104 118.8431 -1603 1.1144832e-038
627.7345 119.43621 -1611 1.1144832e-038
624.95691 119.43621 -1611 1.1144832e-038
624.88275 119.95517 -1618 1.0960441e-038
622.09308 119.95517 -1618 1.0960441e-038
619.30347 119.95517 -1618 1.1052637e-038
619.56207 120.54828 -1626 1.1144832e-038
616.75861 120.54828 -1626 1.1144832e-038
611.15173 120.54828 -1626 1.1329223e-038
608.52411 121.14138 -1634 1.0960441e-038
605.70691 121.14138 -1634 1.0960441e-038
602.88965 121.14138 -1634 1.1144832e-038
600.07239 121.14138 -1634 1.1329223e-038
599.81378 121.66035 -1641 1.1421419e-038
599.89484 122.25345 -1649 1.1421419e-038
597.0517 122.25345 -1649 1.1421419e-038
597.09137 122.84655 -1657 1.1421419e-038
594.2345 122.84655 -1657 1.1421419e-038
591.37756 122.84655 -1657 1.160581e-038
591.36206 123.43965 -1665 1.1698006e-038
588.49139 123.43965 -1665 1.1698006e-038
585.62067 123.43965 -1665 1.1698006e-038
585.54999 124.03276 -1673 1.1513615e-038
582.66553 124.03276 -1673 1.1329223e-038
579.78101 124.03276 -1673 1.1237028e-038
576.7569 124.62586 -1681 1.1329223e-038
573.85864 124.62586 -1681 1.1513615e-038
570.96033 124.62586 -1681 1.160581e-038
568.18964 125.29311 -1690 1.1513615e-038
565.27588 125.29311 -1690 1.1329223e-038
559.16895 125.88621 -1698 1.123774e-038
558.86206 126.47931 -1706 1.1421774e-038
555.92072 126.47931 -1706 1.1513615e-038
555.89655 127.14655 -1715 1.1605453e-038
552.93964 127.14655 -1715 1.1605456e-038
546.60687 127.73965 -1723 1.1604741e-038
543.63623 127.73965 -1723 1.1604741e-038
540.66553 127.73965 -1723 1.1328512e-038
528.55859 128.40689 -1732 1.1698355e-038
525.57239 128.40689 -1732 1.1605796e-038
522.58618 128.40689 -1732 1.1605796e-038
519.59998 128.40689 -1732 1.1605796e-038
519.29828 129.07414 -1741 1.1697633e-038
518.96552 129.74138 -1750 1.1697993e-038
515.9483 129.74138 -1750 1.178983e-038
515.56897 130.40862 -1759 1.1789832e-038
512.53619 130.40862 -1759 1.1605445e-038
509.50345 130.40862 -1759 1.1512531e-038
493.27069 131.7431 -1777 1.1512177e-038
490.20691 131.7431 -1777 1.1880601e-038
489.61035 132.41034 -1786 1.197244e-038
479.69827 133.07759 -1795 1.2065351e-038
476.60345 133.07759 -1795 1.1973154e-038
475.88275 133.74483 -1804 1.1880957e-038
472.7724 133.74483 -1804 1.1696924e-038
469.66208 133.74483 -1804 1.1604726e-038
469.13794 134.48621 -1814 1.13285e-038
468.57932 135.22758 -1824 1.1236299e-038
465.43448 135.22758 -1824 1.1236298e-038
462.28964 135.22758 -1824 1.1328496e-038
459.14484 135.22758 -1824 1.1605083e-038
448.03964 136.6362 -1843 1.1604371e-038
444.86206 136.6362 -1843 1.1604371e-038
441.68448 136.6362 -1843 1.1604371e-038
438.5069 136.6362 -1843 1.1604371e-038
437.69138 137.37758 -1853 1.1604371e-038
434.49655 137.37758 -1853 1.1696567e-038
431.30173 137.37758 -1853 1.1788762e-038
428.1069 137.37758 -1853 1.1880958e-038
424.91208 137.37758 -1853 1.1880958e-038
423.9931 138.11897 -1863 1.1788762e-038
423.03964 138.86035 -1873 1.1696567e-038
419.81033 138.86035 -1873 1.1512534e-038
416.58102 138.86035 -1873 1.1420337e-038
415.55862 139.60173 -1883 1.1328498e-038
412.31207 139.60173 -1883 1.1328496e-038
411.45517 140.41724 -1894 1.1328855e-038
408.18967 140.41724 -1894 1.1328855e-038
407.06207 141.15862 -1904 1.1420693e-038
406.11206 141.97414 -1915 1.1605084e-038
402.81033 141.97414 -1915 1.1880958e-038
399.50861 141.97414 -1915 1.1880958e-038
396.20691 141.97414 -1915 1.1604373e-038
377.18622 143.53104 -1936 1.1788765e-038
373.84827 143.53104 -1936 1.1697284e-038
370.51035 143.53104 -1936 1.169728e-038
369.25861 144.34656 -1947 1.1605084e-038
365.90173 144.34656 -1947 1.169728e-038
362.54483 144.34656 -1947 1.1789476e-038
361.21725 145.16206 -1958 1.1789476e-038
359.85172 145.97758 -1969 1.1789476e-038
356.45691 145.97758 -1969 1.169728e-038
353.06207 145.97758 -1969 1.1512889e-038
351.6207 146.79311 -1980 1.1420693e-038
350.31723 147.68275 -1992 1.1420693e-038
346.88275 147.68275 -1992 1.1420693e-038
343.44827 147.68275 -1992 1.1789476e-038
340.01379 147.68275 -1992 1.1789476e-038
338.43793 148.49828 -2003 1.169728e-038
334.9845 148.49828 -2003 1.169728e-038
331.53104 148.49828 -2003 1.1880958e-038
328.07758 148.49828 -2003 1.1880958e-038
326.56897 149.38792 -2015 1.1880958e-038
323.09482 149.38792 -2015 1.1880958e-038
321.52414 150.27759 -2027 1.1880958e-038
318.0293 150.27759 -2027 1.1880958e-038
316.39655 151.16724 -2039 1.1880958e-038
312.88104 151.16724 -2039 1.1880958e-038
311.18622 152.0569 -2051 1.1880958e-038
307.64999 152.0569 -2051 1.1696567e-038
304.1138 152.0569 -2051 1.1604371e-038
300.57758 152.0569 -2051 1.141998e-038
297.04138 152.0569 -2051 1.1235589e-038
279.18622 153.91034 -2076 1.1880604e-038
277.20001 154.8 -2088 1.1880604e-038
273.60001 154.8 -2088 1.1880604e-038
270 154.8 -2088 1.1880604e-038
266.39999 154.8 -2088 1.1880604e-038
264.43622 155.76379 -2101 1.1880604e-038
260.81378 155.76379 -2101 1.1880604e-038
257.19138 155.76379 -2101 1.1880604e-038
227.36897 157.69138 -2127 1.1697281e-038
217.68965 158.65517 -2140 1.1697281e-038
214 158.65517 -2140 1.1789479e-038
211.58794 159.61897 -2153 1.1881315e-038
207.87585 159.61897 -2153 1.1881673e-038
204.16379 159.61897 -2153 1.1881315e-038
200.45172 159.61897 -2153 1.1881673e-038
198.01897 160.65689 -2167 1.197351e-038
194.28276 160.65689 -2167 1.1973868e-038
190.54655 160.65689 -2167 1.2065705e-038
188.01724 161.69482 -2181 1.2065705e-038
184.2569 161.69482 -2181 1.2157901e-038
180.49655 161.69482 -2181 1.2157901e-038
174.0069 162.65862 -2194 1.1881315e-038
170.22414 162.65862 -2194 1.1512176e-038
166.44138 162.65862 -2194 1.1512176e-038
163.69655 163.69655 -2208 1.1788404e-038
160.97586 164.80862 -2223 1.1788408e-038
157.1431 164.80862 -2223 1.1880604e-038
153.31035 164.80862 -2223 1.1880604e-038
150.41896 165.84656 -2237 1.1695856e-038
146.56207 165.84656 -2237 1.1603662e-038
143.66206 166.95862 -2252 1.1603662e-038
139.77931 166.95862 -2252 1.1879892e-038
135.89655 166.95862 -2252 1.1879892e-038
132.83449 167.99655 -2266 1.1787696e-038
128.92758 167.99655 -2266 1.1787693e-038
102.96896 170.29483 -2297 1.1880604e-038
99.008621 170.29483 -2297 1.1880604e-038
95.048279 170.29483 -2297 1.1880604e-038
91.682762 171.40689 -2312 1.1788408e-038
87.696548 171.40689 -2312 1.1788408e-038
718.32416 106.23103 -1467 1.1146631e-038
715.7948 106.23103 -1467 1.0961884e-038
716.18274 106.66552 -1473 1.0869331e-038
713.64313 106.66552 -1473 1.0869333e-038
711.10345 106.66552 -1473 1.0869333e-038
708.56378 106.66552 -1473 1.0961527e-038
712.25519 107.6069 -1486 1.0961884e-038
709.69312 107.6069 -1486 1.09626e-038
709.98621 108.04138 -1492 1.0962598e-038
707.41382 108.04138 -1492 1.0870398e-038
704.84137 108.04138 -1492 1.0686722e-038
705.56378 108.54828 -1499 1.0686364e-038
702.97931 108.54828 -1499 1.0593811e-038
703.66553 109.05518 -1506 1.0776407e-038
701.06897 109.05518 -1506 1.0407267e-038
698.47241 109.05518 -1506 1.0499463e-038
693.43451 109.48965 -1512 1.1237026e-038
690.82758 109.48965 -1512 1.1145191e-038
691.40692 109.99655 -1519 1.1052994e-038
691.50861 110.43104 -1525 1.1052634e-038
688.87933 110.43104 -1525 1.0960797e-038
689.40002 110.93793 -1532 1.0868244e-038
672.07416 112.45862 -1553 1.0961153e-038
672.41382 112.96552 -1560 1.1145544e-038
669.72412 112.96552 -1560 1.142213e-038
667.03448 112.96552 -1560 1.1514685e-038
664.34485 112.96552 -1560 1.1514327e-038
654.02411 113.97931 -1574 1.1237742e-038
651.31036 113.97931 -1574 1.1329579e-038
648.59656 113.97931 -1574 1.1421419e-038
648.75519 114.48621 -1581 1.1421419e-038
646.0293 114.48621 -1581 1.1329223e-038
646.55859 115.06551 -1589 1.1144832e-038
643.81897 115.06551 -1589 1.1144832e-038
641.07928 115.06551 -1589 1.1329223e-038
632.90863 116.07931 -1603 1.1144832e-038
630.14484 116.07931 -1603 1.1144832e-038
627.38104 116.07931 -1603 1.1144832e-038
627.7345 116.65862 -1611 1.1144832e-038
627.67242 117.16552 -1618 1.1144832e-038
624.88275 117.16552 -1618 1.1144832e-038
622.09308 117.16552 -1618 1.1144832e-038
622.36554 117.74483 -1626 1.1237028e-038
622.61035 118.32413 -1634 1.1329223e-038
616.75861 117.74483 -1626 1.1329223e-038
614.15863 118.32413 -1634 1.1513615e-038
611.34137 118.32413 -1634 1.1329223e-038
608.52411 118.32413 -1634 1.1052637e-038
605.70691 118.32413 -1634 1.1052637e-038
605.47241 118.83103 -1641 1.1237028e-038
602.64313 118.83103 -1641 1.1329223e-038
599.81378 118.83103 -1641 1.1421419e-038
599.89484 119.41035 -1649 1.1421419e-038
599.9483 119.98965 -1657 1.1329223e-038
597.09137 119.98965 -1657 1.1237028e-038
594.2345 119.98965 -1657 1.1329223e-038
591.37756 119.98965 -1657 1.1513615e-038
591.36206 120.56896 -1665 1.160581e-038
588.49139 120.56896 -1665 1.1698006e-038
585.62067 120.56896 -1665 1.1698006e-038
582.75 120.56896 -1665 1.1698006e-038
579.87933 120.56896 -1665 1.160581e-038
579.78101 121.14828 -1673 1.1329223e-038
576.89655 121.14828 -1673 1.1329223e-038
576.7569 121.72758 -1681 1.1329223e-038
573.85864 121.72758 -1681 1.1513615e-038
570.96033 121.72758 -1681 1.160581e-038
568.06207 121.72758 -1681 1.160581e-038
559.16895 122.95862 -1698 1.123774e-038
556.24139 122.95862 -1698 1.1421774e-038
555.92072 123.53793 -1706 1.1513615e-038
555.89655 124.18965 -1715 1.1605453e-038
538.15515 124.18965 -1715 1.132851e-038
537.69482 124.76897 -1723 1.132851e-038
534.72412 124.76897 -1723 1.1513256e-038
522.58618 125.42069 -1732 1.1790188e-038
522.29999 126.07241 -1741 1.1790188e-038
519.29828 126.07241 -1741 1.1697993e-038
518.96552 126.72414 -1750 1.1697633e-038
515.9483 126.72414 -1750 1.160544e-038
512.93103 126.72414 -1750 1.1605442e-038
512.53619 127.37586 -1759 1.1513248e-038
509.50345 127.37586 -1759 1.1420336e-038
506.4707 127.37586 -1759 1.1328143e-038
493.27069 128.67931 -1777 1.1419983e-038
490.20691 128.67931 -1777 1.1880246e-038
489.61035 129.33104 -1786 1.1972443e-038
486.53104 129.33104 -1786 1.2064639e-038
483.45172 129.33104 -1786 1.2157192e-038
480.37241 129.33104 -1786 1.215719e-038
479.69827 129.98276 -1795 1.2065351e-038
476.60345 129.98276 -1795 1.1973154e-038
473.50861 129.98276 -1795 1.1881317e-038
472.7724 130.63448 -1804 1.1881313e-038
469.66208 130.63448 -1804 1.1697279e-038
469.13794 131.35863 -1814 1.1329212e-038
466.01035 131.35863 -1814 1.1236298e-038
465.43448 132.08276 -1824 1.1236655e-038
462.28964 132.08276 -1824 1.1329209e-038
444.86206 133.45862 -1843 1.1788762e-038
441.68448 133.45862 -1843 1.1788762e-038
438.5069 133.45862 -1843 1.1788762e-038
434.49655 134.18275 -1853 1.1788762e-038
431.30173 134.18275 -1853 1.1788762e-038
428.1069 134.18275 -1853 1.1880958e-038
424.91208 134.18275 -1853 1.1880958e-038
423.9931 134.90689 -1863 1.1788762e-038
419.81033 135.63103 -1873 1.1420339e-038
416.58102 135.63103 -1873 1.1328142e-038
412.31207 136.35518 -1883 1.1236659e-038
409.06552 136.35518 -1883 1.1236659e-038
405.81897 136.35518 -1883 1.1328855e-038
404.92413 137.15172 -1894 1.1420693e-038
401.65863 137.15172 -1894 1.169728e-038
400.49655 137.87585 -1904 1.1880958e-038
397.21381 137.87585 -1904 1.1880958e-038
396.20691 138.67241 -1915 1.1604373e-038
392.90518 138.67241 -1915 1.1604373e-038
389.60345 138.67241 -1915 1.1512178e-038
385 139.39655 -1925 1.1695855e-038
381.68103 139.39655 -1925 1.1788051e-038
378.36206 139.39655 -1925 1.1880246e-038
377.18622 140.1931 -1936 1.2064992e-038
373.84827 140.1931 -1936 1.1881318e-038
370.51035 140.1931 -1936 1.169728e-038
367.17242 140.1931 -1936 1.1420693e-038
365.90173 140.98965 -1947 1.1420693e-038
362.54483 140.98965 -1947 1.1789476e-038
359.18793 140.98965 -1947 1.1789476e-038
357.84137 141.78621 -1958 1.1789476e-038
354.46552 141.78621 -1958 1.1512889e-038
351.08966 141.78621 -1958 1.1512889e-038
349.66724 142.58276 -1969 1.1236302e-038
348.20691 143.3793 -1980 1.1236302e-038
344.79309 143.3793 -1980 1.1328498e-038
343.44827 144.24828 -1992 1.169728e-038
340.01379 144.24828 -1992 1.1789476e-038
338.43793 145.04483 -2003 1.1789476e-038
334.9845 145.04483 -2003 1.1789117e-038
331.53104 145.04483 -2003 1.1880958e-038
330.04309 145.91379 -2015 1.1880958e-038
326.56897 145.91379 -2015 1.1880958e-038
323.09482 145.91379 -2015 1.1880958e-038
319.6207 145.91379 -2015 1.1880958e-038
318.0293 146.78276 -2027 1.1880958e-038
314.53448 146.78276 -2027 1.1880958e-038
312.88104 147.65172 -2039 1.1880958e-038
309.36551 147.65172 -2039 1.1880958e-038
307.64999 148.52069 -2051 1.1973154e-038
304.1138 148.52069 -2051 1.1788762e-038
300.57758 148.52069 -2051 1.1604371e-038
279.18622 150.33104 -2076 1.1880959e-038
275.6069 150.33104 -2076 1.1880959e-038
272.02759 150.33104 -2076 1.1880959e-038
268.44827 150.33104 -2076 1.1880959e-038
266.39999 151.2 -2088 1.1880959e-038
262.79999 151.2 -2088 1.1880601e-038
259.20001 151.2 -2088 1.1880601e-038
257.19138 152.14137 -2101 1.1604373e-038
253.56897 152.14137 -2101 1.1604373e-038
231.03621 154.02414 -2127 1.1973511e-038
227.36897 154.02414 -2127 1.178876e-038
214 154.96552 -2140 1.1973151e-038
210.31035 154.96552 -2140 1.1973871e-038
204.16379 155.90689 -2153 1.2157544e-038
200.45172 155.90689 -2153 1.2065708e-038
196.73965 155.90689 -2153 1.2065349e-038
194.28276 156.92068 -2167 1.2065347e-038
190.54655 156.92068 -2167 1.1973511e-038
188.01724 157.93448 -2181 1.1973511e-038
184.2569 157.93448 -2181 1.2065707e-038
180.49655 157.93448 -2181 1.2157902e-038
174.0069 158.87585 -2194 1.2065708e-038
170.22414 158.87585 -2194 1.1973154e-038
166.44138 158.87585 -2194 1.1880958e-038
163.69655 159.88965 -2208 1.1788407e-038
159.88965 159.88965 -2208 1.1788408e-038
156.08276 159.88965 -2208 1.1788408e-038
153.31035 160.97586 -2223 1.1788408e-038
149.47758 160.97586 -2223 1.1695855e-038
146.56207 161.98965 -2237 1.1603661e-038
142.70517 161.98965 -2237 1.1603662e-038
139.77931 163.07587 -2252 1.1879892e-038
135.89655 163.07587 -2252 1.1879892e-038
132.83449 164.08966 -2266 1.1787696e-038
128.92758 164.08966 -2266 1.1787693e-038
125.02069 164.08966 -2266 1.1880245e-038
106.92931 166.33449 -2297 1.1880604e-038
102.96896 166.33449 -2297 1.1880604e-038
99.655174 167.42068 -2312 1.1880604e-038
95.668968 167.42068 -2312 1.1880604e-038
91.682762 167.42068 -2312 1.1788408e-038
718.32416 103.70172 -1467 1.0962242e-038
715.7948 103.70172 -1467 1.0961526e-038
713.2655 103.70172 -1467 1.0869331e-038
713.64313 104.12586 -1473 1.0869333e-038
711.10345 104.12586 -1473 1.0869333e-038
708.56378 104.12586 -1473 1.0961527e-038
712.25519 105.04483 -1486 1.0961884e-038
709.69312 105.04483 -1486 1.0961883e-038
709.98621 105.46896 -1492 1.0962598e-038
707.41382 105.46896 -1492 1.0778562e-038
704.84137 105.46896 -1492 1.0686365e-038
705.56378 105.96379 -1499 1.0686365e-038
702.97931 105.96379 -1499 1.0593812e-038
703.66553 106.45862 -1506 1.1052994e-038
701.06897 106.45862 -1506 1.0407267e-038
693.43451 106.88276 -1512 1.1237387e-038
690.82758 106.88276 -1512 1.1237028e-038
691.40692 107.37759 -1519 1.1052997e-038
688.7879 107.37759 -1519 1.0960442e-038
688.87933 107.80173 -1525 1.0868245e-038
689.40002 108.29655 -1532 1.0683854e-038
686.75861 108.29655 -1532 1.0683495e-038
684.11725 108.29655 -1532 1.0960082e-038
671.71033 109.28621 -1546 1.0961154e-038
672.07416 109.78104 -1553 1.1052991e-038
669.72412 110.27586 -1560 1.1329938e-038
654.02411 111.26552 -1574 1.1329579e-038
651.31036 111.26552 -1574 1.1421416e-038
648.59656 111.26552 -1574 1.1421419e-038
648.75519 111.76035 -1581 1.1421419e-038
646.0293 111.76035 -1581 1.1144832e-038
646.55859 112.32586 -1589 1.1052637e-038
643.81897 112.32586 -1589 1.1144832e-038
641.07928 112.32586 -1589 1.1421419e-038
627.38104 113.31551 -1603 1.1052637e-038
627.7345 113.88103 -1611 1.1052637e-038
627.67242 114.37586 -1618 1.1052637e-038
624.88275 114.37586 -1618 1.1144832e-038
622.09308 114.37586 -1618 1.1144832e-038
622.36554 114.94138 -1626 1.1237028e-038
622.61035 115.5069 -1634 1.1329223e-038
616.75861 114.94138 -1626 1.1329223e-038
613.9552 114.94138 -1626 1.1421419e-038
614.15863 115.5069 -1634 1.1513615e-038
611.34137 115.5069 -1634 1.1513615e-038
611.13104 116.00172 -1641 1.1237028e-038
608.3017 116.00172 -1641 1.1237028e-038
605.47241 116.00172 -1641 1.1329223e-038
602.64313 116.00172 -1641 1.1421419e-038
602.73792 116.56724 -1649 1.1421419e-038
599.89484 116.56724 -1649 1.1329223e-038
597.0517 116.56724 -1649 1.1144832e-038
597.09137 117.13276 -1657 1.1144832e-038
594.2345 117.13276 -1657 1.1237028e-038
588.49139 117.69827 -1665 1.1698006e-038
585.62067 117.69827 -1665 1.1698006e-038
582.75 117.69827 -1665 1.1698006e-038
582.66553 118.26379 -1673 1.160581e-038
579.78101 118.26379 -1673 1.1329223e-038
576.7569 118.82931 -1681 1.1237028e-038
573.85864 118.82931 -1681 1.1513615e-038
570.96033 118.82931 -1681 1.160581e-038
571.10345 119.46552 -1690 1.160581e-038
559.16895 120.03104 -1698 1.123774e-038
556.24139 120.03104 -1698 1.1329579e-038
555.92072 120.59655 -1706 1.1513615e-038
555.89655 121.23276 -1715 1.1605453e-038
552.93964 121.23276 -1715 1.1605456e-038
540.66553 121.79828 -1723 1.1328509e-038
537.69482 121.79828 -1723 1.1328507e-038
528.30347 123.07069 -1741 1.1790548e-038
525.3017 123.07069 -1741 1.1882383e-038
522.29999 123.07069 -1741 1.1790188e-038
521.98279 123.70689 -1750 1.1697993e-038
518.96552 123.70689 -1750 1.1605439e-038
515.9483 123.70689 -1750 1.1513245e-038
515.56897 124.3431 -1759 1.1513245e-038
512.53619 124.3431 -1759 1.1421053e-038
509.50345 124.3431 -1759 1.1328142e-038
506.4707 124.3431 -1759 1.1328143e-038
499.91724 124.97931 -1768 1.1327786e-038
496.86896 124.97931 -1768 1.1327786e-038
496.33447 125.61552 -1777 1.1327786e-038
493.27069 125.61552 -1777 1.1327788e-038
492.68967 126.25172 -1786 1.1603659e-038
489.61035 126.25172 -1786 1.1880249e-038
486.53104 126.25172 -1786 1.1972445e-038
483.45172 126.25172 -1786 1.2156833e-038
482.79309 126.88793 -1795 1.2157188e-038
479.69827 126.88793 -1795 1.1973157e-038
476.60345 126.88793 -1795 1.1881317e-038
475.88275 127.52414 -1804 1.1881315e-038
472.7724 127.52414 -1804 1.1881671e-038
472.2655 128.23103 -1814 1.1881667e-038
469.13794 128.23103 -1814 1.1605795e-038
468.57932 128.93793 -1824 1.1329209e-038
465.43448 128.93793 -1824 1.1329208e-038
444.86206 130.28104 -1843 1.1880958e-038
441.68448 130.28104 -1843 1.1880958e-038
438.5069 130.28104 -1843 1.1880958e-038
437.69138 130.98793 -1853 1.1880958e-038
434.49655 130.98793 -1853 1.1880958e-038
433.6293 131.69482 -1863 1.1880958e-038
430.41724 131.69482 -1863 1.1880958e-038
427.20517 131.69482 -1863 1.1880958e-038
412.31207 133.10863 -1883 1.1236301e-038
409.06552 133.10863 -1883 1.1236659e-038
405.81897 133.10863 -1883 1.1236659e-038
404.92413 133.8862 -1894 1.1420693e-038
403.7793 134.59311 -1904 1.1696921e-038
400.49655 134.59311 -1904 1.1880958e-038
397.21381 134.59311 -1904 1.1880958e-038
396.20691 135.3707 -1915 1.1604373e-038
392.90518 135.3707 -1915 1.151182e-038
388.31897 136.07759 -1925 1.1419627e-038
385 136.07759 -1925 1.1603659e-038
381.68103 136.07759 -1925 1.1695855e-038
380.52414 136.85518 -1936 1.1788409e-038
377.18622 136.85518 -1936 1.2064632e-038
373.84827 136.85518 -1936 1.1789124e-038
370.51035 136.85518 -1936 1.1696921e-038
369.25861 137.63275 -1947 1.1512889e-038
365.90173 137.63275 -1947 1.1512889e-038
364.59311 138.41034 -1958 1.169728e-038
361.21725 138.41034 -1958 1.1789476e-038
357.84137 138.41034 -1958 1.1881671e-038
354.46552 138.41034 -1958 1.169728e-038
353.06207 139.18793 -1969 1.1512889e-038
349.66724 139.18793 -1969 1.1236302e-038
350.31723 140.8138 -1992 1.1236302e-038
346.88275 140.8138 -1992 1.169728e-038
343.44827 140.8138 -1992 1.1881671e-038
341.89139 141.59138 -2003 1.1973867e-038
338.43793 141.59138 -2003 1.1973867e-038
334.9845 141.59138 -2003 1.1880955e-038
333.51724 142.43965 -2015 1.1880957e-038
330.04309 142.43965 -2015 1.1880958e-038
326.56897 142.43965 -2015 1.1880958e-038
323.09482 142.43965 -2015 1.1880958e-038
321.52414 143.28793 -2027 1.1880958e-038
319.91208 144.1362 -2039 1.1880958e-038
316.39655 144.1362 -2039 1.1880958e-038
312.88104 144.1362 -2039 1.1880958e-038
307.64999 144.98448 -2051 1.2157545e-038
279.18622 146.75172 -2076 1.1880959e-038
275.6069 146.75172 -2076 1.1880959e-038
272.02759 146.75172 -2076 1.1880959e-038
270 147.60001 -2088 1.1880959e-038
266.39999 147.60001 -2088 1.1880959e-038
262.79999 147.60001 -2088 1.1604373e-038
260.81378 148.51897 -2101 1.1604373e-038
257.19138 148.51897 -2101 1.1604373e-038
253.56897 148.51897 -2101 1.1604373e-038
244.20345 149.43793 -2114 1.1512177e-038
240.55862 149.43793 -2114 1.1604373e-038
236.91379 149.43793 -2114 1.1696567e-038
234.70345 150.3569 -2127 1.1973152e-038
231.03621 150.3569 -2127 1.1973152e-038
227.36897 150.3569 -2127 1.1788764e-038
217.68965 151.27586 -2140 1.1789123e-038
214 151.27586 -2140 1.1973154e-038
200.45172 152.19482 -2153 1.2065708e-038
196.73965 152.19482 -2153 1.2065349e-038
194.28276 153.18448 -2167 1.2065349e-038
191.77759 154.17413 -2181 1.1973154e-038
188.01724 154.17413 -2181 1.1880958e-038
181.57242 155.09311 -2194 1.2065707e-038
177.78966 155.09311 -2194 1.2157902e-038
174.0069 155.09311 -2194 1.2065349e-038
170.22414 155.09311 -2194 1.1973154e-038
167.50345 156.08276 -2208 1.1973154e-038
163.69655 156.08276 -2208 1.1973155e-038
159.88965 156.08276 -2208 1.1788767e-038
157.1431 157.1431 -2223 1.1880246e-038
153.31035 157.1431 -2223 1.1788408e-038
150.41896 158.13275 -2237 1.1695855e-038
146.56207 158.13275 -2237 1.1511465e-038
143.66206 159.1931 -2252 1.1511466e-038
139.77931 159.1931 -2252 1.1787696e-038
136.74138 160.18275 -2266 1.1787696e-038
132.83449 160.18275 -2266 1.1787696e-038
128.92758 160.18275 -2266 1.1695499e-038
106.92931 162.37415 -2297 1.1880604e-038
103.64138 163.43448 -2312 1.1880604e-038
99.655174 163.43448 -2312 1.1880604e-038
95.668968 163.43448 -2312 1.1880604e-038
718.32416 101.17242 -1467 1.0961883e-038
715.7948 101.17242 -1467 1.0961527e-038
713.2655 101.17242 -1467 1.1053365e-038
713.64313 101.5862 -1473 1.1053011e-038
711.10345 101.5862 -1473 1.1053011e-038
708.56378 101.5862 -1473 1.1053364e-038
712.25519 102.48276 -1486 1.0961527e-038
709.69312 102.48276 -1486 1.0961883e-038
709.98621 102.89655 -1492 1.0870045e-038
707.41382 102.89655 -1492 1.0778205e-038
704.84137 102.89655 -1492 1.0686008e-038
705.56378 103.37931 -1499 1.0686008e-038
706.26208 103.86207 -1506 1.1053353e-038
703.66553 103.86207 -1506 1.123667e-038
701.06897 103.86207 -1506 1.123667e-038
696.04138 104.27586 -1512 1.1329225e-038
693.43451 104.27586 -1512 1.1421062e-038
690.82758 104.27586 -1512 1.1329223e-038
691.40692 104.75862 -1519 1.1052638e-038
688.7879 104.75862 -1519 1.1052278e-038
688.87933 105.17242 -1525 1.0960084e-038
676.62933 106.13793 -1539 1.1421775e-038
673.97589 106.13793 -1539 1.1237384e-038
671.71033 106.62069 -1546 1.1053351e-038
672.07416 107.10345 -1553 1.1053353e-038
651.31036 108.55173 -1574 1.1421416e-038
648.59656 108.55173 -1574 1.1421419e-038
645.88275 108.55173 -1574 1.1144832e-038
643.16895 108.55173 -1574 1.0868245e-038
643.30347 109.03448 -1581 1.0868245e-038
643.81897 109.5862 -1589 1.1144832e-038
641.07928 109.5862 -1589 1.1421419e-038
633.25171 111.5862 -1618 1.1052637e-038
630.4621 111.5862 -1618 1.1052637e-038
627.67242 111.5862 -1618 1.1052637e-038
624.88275 111.5862 -1618 1.1052637e-038
622.09308 111.5862 -1618 1.0960441e-038
622.36554 112.13793 -1626 1.1052637e-038
