# .PCD v.7 - Point Cloud Data file format
VERSION .7
FIELDS x y z
SIZE 4 4 4
TYPE F F F
COUNT 1 1 1
WIDTH 1338
HEIGHT 1
POINTS 1338
DATA ascii
1544.944206 492.770291 -1513.325225
1541.791162 492.882316 -1515.238089
1538.638117 492.994341 -1517.150954
1535.485073 493.106366 -1519.063819
1532.332029 493.218391 -1520.976683
1529.178872 493.330422 -1522.889679
1433.966170 478.445618 -1506.347641
1406.182869 472.296948 -1494.177548
1403.161041 472.404313 -1496.010871
1400.139091 472.511681 -1497.844202
1397.117140 472.619048 -1499.677533
1394.095190 472.726415 -1501.510865
1382.230379 469.722793 -1494.776752
1379.226083 469.829530 -1496.599310
1376.221787 469.936268 -1498.421869
1373.217500 470.043010 -1500.244549
1306.662006 455.567205 -1472.121934
1292.932096 452.915263 -1467.680334
1297.910042 455.878159 -1477.431619
1287.129800 453.121413 -1471.200396
1284.228656 453.224490 -1472.960487
1281.327625 453.327560 -1474.720448
1278.426482 453.430637 -1476.480540
1267.727292 450.671017 -1470.200287
1264.842408 450.773519 -1471.950570
1261.957515 450.876016 -1473.700730
1259.072500 450.978514 -1475.450900
1248.454354 448.216015 -1469.121497
1250.417829 451.286009 -1480.701503
1247.532944 451.388511 -1482.451785
1739.773760 517.907584 -1541.549020
1736.435003 518.026204 -1543.574474
1729.757620 518.263447 -1547.625496
1726.418873 518.382072 -1549.651073
1723.080116 518.500692 -1551.676528
1719.741480 518.619311 -1553.701973
1716.402733 518.737935 -1555.727549
1713.063985 518.856560 -1557.753126
1709.725228 518.975180 -1559.778581
1706.386480 519.093805 -1561.804157
1622.483270 501.647818 -1529.108503
1619.250587 501.762672 -1531.069676
1616.018025 501.877525 -1533.030841
1612.785454 501.992372 -1534.991884
1609.552648 502.107228 -1536.953067
1541.751279 489.195921 -1515.388240
1538.598235 489.307946 -1517.301104
1535.445191 489.419971 -1519.213969
1532.292146 489.531996 -1521.126834
1529.138990 489.644028 -1523.039829
1525.985945 489.756052 -1524.952694
1519.679735 489.980104 -1528.778432
1516.526691 490.092129 -1530.691297
1513.373646 490.204154 -1532.604162
1510.220612 490.316184 -1534.517148
1443.103842 474.543449 -1500.926239
1440.045058 474.652127 -1502.781966
1436.986265 474.760800 -1504.637573
1433.927481 474.869477 -1506.493301
1406.144646 468.763890 -1494.321453
1403.122817 468.871256 -1496.154775
1400.100867 468.978623 -1497.988107
1397.078917 469.085990 -1499.821438
1394.056967 469.193357 -1501.654770
1382.192379 466.210377 -1494.919816
1379.188083 466.317115 -1496.742374
1376.183787 466.423852 -1498.564933
1373.179500 466.530594 -1500.387613
1370.175325 466.637330 -1502.210163
1367.171038 466.744072 -1504.032843
1292.895400 449.523438 -1467.818486
1297.873142 452.467399 -1477.570543
1287.093104 449.729587 -1471.338548
1284.191961 449.832664 -1473.098640
1281.290930 449.935735 -1474.858601
1278.389786 450.038812 -1476.618692
1267.690802 447.298157 -1470.337667
1264.805918 447.400658 -1472.087949
1261.921025 447.503155 -1473.838110
1259.036009 447.605653 -1475.588280
1248.418068 444.862120 -1469.258104
1739.731530 514.004189 -1541.708009
1736.392773 514.122809 -1543.733463
1733.054016 514.241429 -1545.758918
1729.715390 514.360052 -1547.784485
1726.376643 514.478677 -1549.810062
1723.037885 514.597297 -1551.835517
1719.699250 514.715915 -1553.860962
1716.360503 514.834540 -1555.886538
1713.021755 514.953165 -1557.912115
1698.376674 511.525678 -1550.540835
1695.058623 511.643566 -1552.553815
1691.740459 511.761460 -1554.566926
1622.442382 497.868458 -1529.262440
1619.209699 497.983312 -1531.223613
1615.977137 498.098164 -1533.184778
1538.558353 485.621552 -1517.451255
1535.405308 485.733577 -1519.364119
1532.252264 485.845601 -1521.276984
1529.099107 485.957633 -1523.189980
1525.946063 486.069658 -1525.102844
1513.333764 486.517759 -1532.754312
1510.180729 486.629789 -1534.667298
1446.123936 470.858630 -1499.216170
1443.065152 470.967308 -1501.071898
1440.006368 471.075986 -1502.927626
1436.947575 471.184659 -1504.783232
1433.888791 471.293337 -1506.638960
1430.830007 471.402014 -1508.494688
1406.106422 465.230802 -1494.465359
1403.084594 465.338167 -1496.298681
1400.062644 465.445534 -1498.132013
1397.040693 465.552902 -1499.965344
1385.158545 462.591251 -1493.240207
1382.154379 462.697992 -1495.062878
1379.150083 462.804729 -1496.885437
1376.145787 462.911467 -1498.707996
1373.141500 463.018209 -1500.530676
1287.056409 446.337792 -1471.476699
1284.155266 446.440869 -1473.236791
1281.254235 446.543939 -1474.996752
1278.353091 446.647016 -1476.756843
1267.654312 443.925296 -1470.475047
1264.769428 444.027798 -1472.225329
1261.884534 444.130294 -1473.975490
1251.250539 441.406271 -1467.654352
1248.381783 441.508194 -1469.394713
1245.513149 441.610115 -1471.135064
1743.028047 509.982107 -1539.841424
1739.689300 510.100732 -1541.867000
1736.350542 510.219352 -1543.892455
1733.011785 510.337972 -1545.917910
1729.673160 510.456595 -1547.943477
1726.334412 510.575220 -1549.969053
1722.995655 510.693840 -1551.994508
1708.288981 507.292704 -1544.659893
1704.970929 507.410592 -1546.672873
1701.652756 507.528482 -1548.685863
1698.334705 507.646370 -1550.698843
1695.016653 507.764257 -1552.711823
1691.698489 507.882152 -1554.724934
1688.380438 508.000040 -1556.737914
1622.401494 494.089037 -1529.416379
1619.168810 494.203891 -1531.377553
1584.990689 487.851142 -1520.760288
1581.797759 487.964580 -1522.697251
1535.365426 482.047212 -1519.514268
1532.212382 482.159237 -1521.427133
1529.059225 482.271269 -1523.340129
1525.906181 482.383294 -1525.252993
1513.293882 482.831395 -1532.904461
1510.140847 482.943425 -1534.817447
1443.026463 467.391197 -1501.217557
1439.967679 467.499875 -1503.073284
1436.908886 467.608548 -1504.928891
1433.850102 467.717226 -1506.784619
1430.791318 467.825904 -1508.640347
1403.046370 461.805109 -1496.442586
1388.124963 458.972097 -1491.560703
1385.120545 459.078836 -1493.383271
1382.116379 459.185576 -1495.205942
1379.112083 459.292314 -1497.028501
1376.107787 459.399051 -1498.851060
1373.103500 459.505793 -1500.673740
1284.118570 443.049043 -1473.374943
1281.217539 443.152114 -1475.134904
1278.316396 443.255191 -1476.894996
1267.617822 440.552435 -1470.612427
1264.732938 440.654937 -1472.362709
1261.848044 440.757434 -1474.112870
1251.214254 438.052345 -1467.790961
1248.345498 438.154268 -1469.531321
1245.476863 438.256189 -1471.271672
1242.608107 438.358112 -1473.012033
1239.739473 438.460033 -1474.752384
1251.122079 447.304251 -1506.166231
1248.204789 447.407897 -1507.936002
1242.370105 447.615201 -1511.475795
1239.452703 447.718853 -1513.245696
234.834975 301.522225 -1369.105855
232.873885 301.591902 -1370.295632
232.232277 303.015997 -1376.490723
1742.985816 506.078651 -1540.000415
1739.647069 506.197276 -1542.025992
1736.308312 506.315896 -1544.051446
1732.969555 506.434516 -1546.076901
1718.201279 503.059726 -1538.778830
1714.883236 503.177619 -1540.791931
1711.565063 503.295508 -1542.804921
1708.247012 503.413396 -1544.817901
1704.928960 503.531284 -1546.830881
1701.610787 503.649174 -1548.843871
1698.292735 503.767062 -1550.856851
1694.974684 503.884949 -1552.869831
1691.656520 504.002844 -1554.882942
1688.338468 504.120732 -1556.895922
1584.950304 484.118249 -1520.912332
1581.757374 484.231687 -1522.849295
1572.178848 484.572008 -1528.660409
1541.631633 478.136768 -1515.838690
1538.478588 478.248793 -1517.751554
1535.325544 478.360818 -1519.664419
1532.172500 478.472843 -1521.577283
1529.019343 478.584874 -1523.490279
1525.866299 478.696899 -1525.403144
1519.560088 478.920951 -1529.228882
1516.407044 479.032976 -1531.141747
1513.254000 479.145001 -1533.054612
1510.100965 479.257030 -1534.967598
1446.046557 463.706379 -1499.507488
1442.987773 463.815056 -1501.363216
1439.928990 463.923734 -1503.218944
1436.870196 464.032407 -1505.074550
1433.811413 464.141085 -1506.930278
1430.752629 464.249763 -1508.786006
1388.086963 455.459711 -1491.703766
1385.082545 455.566451 -1493.526334
1382.078380 455.673191 -1495.349005
1379.074083 455.779928 -1497.171564
1346.580826 450.249461 -1489.014292
1328.991332 447.531924 -1485.750379
1284.081875 439.657217 -1473.513095
1278.279700 439.863365 -1477.033148
1267.581331 437.179544 -1470.749808
1264.696447 437.282046 -1472.500090
1261.811553 437.384543 -1474.250251
1258.926538 437.487041 -1476.000421
1256.041654 437.589543 -1477.750703
1245.440578 434.902263 -1471.408281
1242.571822 435.004186 -1473.148641
1239.703188 435.106107 -1474.888992
1251.085179 443.893491 -1506.305155
1248.167888 443.997137 -1508.074925
1245.250486 444.100790 -1509.844827
1242.333205 444.204440 -1511.614719
1239.415802 444.308093 -1513.384620
234.088306 296.469698 -1358.024519
232.141981 296.538851 -1359.205334
232.849080 299.299107 -1370.389019
230.887990 299.368784 -1371.578796
228.926891 299.438457 -1372.768451
1749.621091 501.938010 -1536.108373
1746.282334 502.056630 -1538.133828
1742.943586 502.175255 -1540.159404
1739.604839 502.293880 -1542.184981
1736.266082 502.412500 -1544.210435
1732.927325 502.531120 -1546.235890
1718.159309 499.180418 -1538.936837
1714.841267 499.298311 -1540.949939
1711.523094 499.416200 -1542.962929
1719.572559 503.005606 -1554.337934
1701.568817 499.769866 -1549.001879
1698.250766 499.887753 -1551.014859
1694.932714 500.005641 -1553.027839
1691.614550 500.123536 -1555.040950
1688.296499 500.241424 -1557.053930
1584.909918 480.385357 -1521.064376
1581.716989 480.498795 -1523.001339
1578.524190 480.612236 -1524.938415
1575.331392 480.725677 -1526.875490
1541.591751 474.450404 -1515.988839
1538.438706 474.562429 -1517.901703
1535.285662 474.674454 -1519.814568
1532.132618 474.786479 -1521.727433
1528.979461 474.898510 -1523.640428
1525.826417 475.010535 -1525.553293
1522.673251 475.122562 -1527.466167
1519.520206 475.234587 -1529.379031
1516.367162 475.346612 -1531.291896
1446.007868 460.130238 -1499.653148
1442.949084 460.238916 -1501.508876
1439.890300 460.347594 -1503.364604
1433.772723 460.564944 -1507.075938
1430.713939 460.673622 -1508.931666
1427.655146 460.782295 -1510.787272
1385.044545 452.054035 -1493.669398
1382.040380 452.160775 -1495.492069
1379.036083 452.267513 -1497.314628
1352.481109 446.567426 -1485.553412
1349.512252 446.672907 -1487.354537
1346.543273 446.778390 -1489.155672
1343.574416 446.883871 -1490.956798
1331.905197 443.976700 -1484.100442
1328.954003 444.081556 -1485.890916
1326.002800 444.186408 -1487.681268
1284.045179 436.265392 -1473.651248
1278.243005 436.471539 -1477.171300
1267.544841 433.806684 -1470.887188
1264.659957 433.909185 -1472.637470
1261.775063 434.011682 -1474.387630
1258.890048 434.114180 -1476.137800
1256.005164 434.216682 -1477.888083
1245.404293 431.548367 -1471.544888
1242.535537 431.650290 -1473.285249
1239.666903 431.752212 -1475.025600
1251.048278 440.482731 -1506.444079
1248.130988 440.586377 -1508.213849
1245.213586 440.690029 -1509.983750
1242.296305 440.793680 -1511.753642
1239.378902 440.897333 -1513.523543
234.063687 294.194130 -1358.117205
232.117362 294.263283 -1359.298020
232.824275 297.006312 -1370.482407
230.863185 297.075989 -1371.672183
228.902086 297.145662 -1372.861838
226.940996 297.215339 -1374.051615
1749.578861 498.034554 -1536.267364
1746.240103 498.153174 -1538.292819
1742.901356 498.271799 -1540.318396
1739.562608 498.390423 -1542.343972
1736.223851 498.509043 -1544.369427
1732.885094 498.627663 -1546.394882
1729.546468 498.746287 -1548.420449
1726.207721 498.864911 -1550.446025
1722.868964 498.983531 -1552.471480
1719.530328 499.102150 -1554.496926
1698.208796 496.008384 -1551.172869
1694.890744 496.126272 -1553.185849
1691.572580 496.244167 -1555.198960
1688.254529 496.362055 -1557.211940
1633.398507 486.207027 -1539.391320
1630.145240 486.322612 -1541.364959
1626.891982 486.438201 -1543.338719
1623.638714 486.553786 -1545.312358
1578.483805 476.879343 -1525.090459
1575.291007 476.992785 -1527.027534
1541.551868 470.764009 -1516.138989
1538.398824 470.876034 -1518.051854
1535.245780 470.988059 -1519.964718
1532.092735 471.100084 -1521.877583
1528.939579 471.212116 -1523.790579
1525.786534 471.324141 -1525.703443
1522.633368 471.436167 -1527.616317
1519.480324 471.548192 -1529.529182
1516.327280 471.660217 -1531.442046
1433.121344 453.434378 -1492.495446
1430.081740 453.542375 -1494.339550
1427.042127 453.650367 -1496.183533
1424.002522 453.758364 -1498.027637
1420.962909 453.866356 -1499.871620
1399.909749 451.313242 -1498.707635
1388.010963 448.434911 -1491.989893
1385.006545 448.541650 -1493.812461
1382.002380 448.648390 -1495.635132
1378.998084 448.755128 -1497.457691
1355.412536 442.990904 -1483.893656
1352.443557 443.096386 -1485.694791
1349.474700 443.201867 -1487.495916
1346.505721 443.307350 -1489.297051
1334.819071 440.421451 -1482.450627
1331.867868 440.526302 -1484.240980
1328.916674 440.631158 -1486.031454
1325.965471 440.736010 -1487.821806
1267.508351 430.433823 -1471.024568
1264.623466 430.536325 -1472.774850
1261.738573 430.638821 -1474.525010
1251.105398 427.990597 -1468.200785
1248.236642 428.092520 -1469.941146
1245.368007 428.194441 -1471.681497
1242.499251 428.296364 -1473.421857
1239.630617 428.398286 -1475.162208
1251.011378 437.071970 -1506.583002
1248.094088 437.175616 -1508.352772
1245.176685 437.279269 -1510.122674
1242.259404 437.382920 -1511.892566
1239.342002 437.486572 -1513.662467
241.241598 293.038105 -1359.647292
239.287844 293.107521 -1360.832592
237.334112 293.176931 -1362.017767
234.039069 291.918562 -1358.209891
232.092743 291.987715 -1359.390706
232.799469 294.713517 -1370.575795
230.838380 294.783194 -1371.765571
228.877281 294.852867 -1372.955226
226.916191 294.922544 -1374.145003
1746.197873 494.249748 -1538.451810
1742.859125 494.368373 -1540.477386
1739.520378 494.486997 -1542.502962
1736.181621 494.605617 -1544.528417
1732.842864 494.724237 -1546.553872
1729.504238 494.842861 -1548.579439
1726.165490 494.961485 -1550.605016
1722.826733 495.080105 -1552.630470
1719.488098 495.198724 -1554.655916
1716.149350 495.317349 -1556.681492
1701.484878 492.011219 -1549.317896
1698.166827 492.129107 -1551.330876
1694.848775 492.246995 -1553.343856
1691.530611 492.364889 -1555.356967
1688.212560 492.482777 -1557.369947
1636.610625 482.287934 -1537.572601
1633.357358 482.403519 -1539.546240
1630.104091 482.519103 -1541.519879
1626.850832 482.634693 -1543.493640
1623.597565 482.750277 -1545.467279
1578.443420 473.146451 -1525.242503
1575.250621 473.259892 -1527.179578
1544.665030 466.965590 -1514.376275
1541.511986 467.077615 -1516.289139
1538.358942 467.189640 -1518.202004
1535.205897 467.301665 -1520.114869
1532.052853 467.413690 -1522.027733
1528.899696 467.525721 -1523.940729
1525.746652 467.637746 -1525.853594
1522.593486 467.749773 -1527.766467
1433.082897 449.880647 -1492.640193
1430.043293 449.988644 -1494.484297
1427.003680 450.096636 -1496.328280
1423.964075 450.204633 -1498.172384
1420.924462 450.312625 -1500.016366
1408.937377 447.458083 -1493.351545
1405.915305 447.565452 -1495.184886
1402.893476 447.672817 -1497.018208
1399.871526 447.780185 -1498.851539
1387.972963 444.922495 -1492.132957
1384.968545 445.029234 -1493.955525
1381.964380 445.135974 -1495.778196
1378.960083 445.242712 -1497.600755
1355.374983 439.519833 -1484.035036
1352.406004 439.625316 -1485.836171
1349.437147 439.730797 -1487.637296
1337.733058 436.866226 -1480.800680
1334.781743 436.971084 -1482.591164
1331.830539 437.075935 -1484.381516
1328.879345 437.180791 -1486.171991
1325.928142 437.285642 -1487.962343
1322.976948 437.390498 -1489.752817
1267.471860 427.060962 -1471.161947
1264.586976 427.163464 -1472.912230
1261.702083 427.265961 -1474.662390
1251.069112 424.636671 -1468.337394
1248.200356 424.738594 -1470.077754
1245.331722 424.840515 -1471.818105
1242.462966 424.942438 -1473.558466
1239.594332 425.044360 -1475.298817
1244.392497 427.880954 -1485.163615
1241.507604 427.983451 -1486.913776
1238.622719 428.085953 -1488.664058
1245.139785 433.868509 -1510.261597
241.799884 289.366387 -1353.579427
239.853528 289.435540 -1354.760245
239.263133 290.823355 -1360.925628
235.960806 289.573841 -1357.121759
234.014450 289.642994 -1358.302577
233.401954 291.031595 -1364.481398
231.448231 291.101011 -1365.666695
230.813574 292.490399 -1371.858959
227.540776 291.239836 -1368.037168
225.587053 291.309251 -1369.222465
1742.816895 490.464946 -1540.636376
1739.478148 490.583571 -1542.661953
1736.139390 490.702191 -1544.687407
1732.800633 490.820811 -1546.712862
1729.462008 490.939435 -1548.738429
1726.123260 491.058059 -1550.764006
1722.784503 491.176679 -1552.789461
1719.445868 491.295298 -1554.814906
1704.761082 488.013991 -1547.462915
1701.442909 488.131880 -1549.475905
1698.124857 488.249768 -1551.488885
1694.806805 488.367656 -1553.501865
1691.488642 488.485551 -1555.514976
1688.170590 488.603439 -1557.527956
1636.569476 478.484395 -1537.727523
1633.316208 478.599980 -1539.701162
1630.062941 478.715564 -1541.674801
1626.809683 478.831154 -1543.648562
1581.595833 469.300117 -1523.457472
1575.210236 469.526999 -1527.331623
1544.625148 463.279226 -1514.526424
1541.472104 463.391251 -1516.439288
1538.319060 463.503276 -1518.352153
1535.166015 463.615301 -1520.265018
1532.012971 463.727325 -1522.177882
1528.859814 463.839357 -1524.090878
1525.706770 463.951382 -1526.003743
1522.553604 464.063408 -1527.916617
1433.044450 446.326886 -1492.784941
1430.004846 446.434883 -1494.629045
1423.925628 446.650872 -1498.317132
1411.921103 443.817658 -1491.662118
1408.899153 443.925025 -1493.495450
1405.877081 444.032394 -1495.328791
1402.855253 444.139760 -1497.162113
1399.833302 444.247127 -1498.995444
1387.934963 441.410110 -1492.276020
1384.930545 441.516849 -1494.098588
1381.926380 441.623589 -1495.921259
1378.922084 441.730327 -1497.743818
1355.337431 436.048793 -1484.176415
1352.368452 436.154276 -1485.977550
1349.399594 436.259757 -1487.778675
1346.430615 436.365239 -1489.579810
1334.744414 433.520686 -1482.731702
1331.793210 433.625537 -1484.522054
1328.842016 433.730393 -1486.312529
1325.890813 433.835244 -1488.102881
1322.939619 433.940100 -1489.893355
1319.988293 434.044953 -1491.683717
1309.143522 431.442168 -1485.486745
1303.273399 431.650728 -1489.047971
1264.550486 423.790573 -1473.049611
1261.665592 423.893070 -1474.799771
1258.780577 423.995568 -1476.549941
1255.895693 424.098070 -1478.300223
1253.010799 424.200566 -1480.050384
1250.125906 424.303063 -1481.800544
1247.241022 424.405565 -1483.550827
1244.356006 424.508063 -1485.300996
1241.471113 424.610560 -1487.051157
1238.586229 424.713062 -1488.801439
1235.701335 424.815558 -1490.551600
292.564924 292.349076 -1353.058114
243.721652 287.021665 -1352.491293
240.404695 285.781279 -1348.696154
238.465705 285.850170 -1349.872492
237.882553 287.229125 -1356.033749
235.936187 287.298273 -1357.214445
233.989831 287.367426 -1358.395263
232.043505 287.436579 -1359.576079
230.097149 287.505732 -1360.756896
229.469796 288.886259 -1366.945029
227.516064 288.955670 -1368.130204
225.562341 289.025085 -1369.315501
1742.774665 486.561520 -1540.795366
1739.435917 486.680145 -1542.820943
1736.097160 486.798765 -1544.846398
1732.758403 486.917385 -1546.871853
1729.419777 487.036008 -1548.897420
1726.081030 487.154633 -1550.922996
1722.742273 487.273253 -1552.948451
1719.403637 487.391872 -1554.973896
1704.719112 484.134683 -1547.620923
1701.400939 484.252572 -1549.633913
1698.082888 484.370460 -1551.646893
1694.764836 484.488348 -1553.659873
1691.446672 484.606243 -1555.672984
1688.128621 484.724130 -1557.685964
1636.528326 474.680886 -1537.882444
1633.275059 474.796471 -1539.856083
1630.021791 474.912056 -1541.829722
1626.768533 475.027645 -1543.803482
1581.555447 465.567224 -1523.609516
1578.362649 465.680666 -1525.546592
1575.169850 465.794107 -1527.483667
1547.738310 459.480806 -1512.763710
1544.585266 459.592831 -1514.676574
1541.432222 459.704856 -1516.589439
1538.279177 459.816881 -1518.502304
1535.126133 459.928906 -1520.415168
1531.973089 460.040931 -1522.328033
1528.819932 460.152962 -1524.241028
1429.966399 442.881153 -1494.773792
1426.926785 442.989145 -1496.617774
1423.887181 443.097142 -1498.461879
1411.882880 440.284570 -1491.806025
1408.860929 440.391937 -1493.639356
1405.838857 440.499306 -1495.472697
1402.817029 440.606671 -1497.306019
1399.795079 440.714038 -1499.139350
1387.896963 437.897694 -1492.419084
1384.892545 438.004433 -1494.241652
1381.888380 438.111174 -1496.064323
1378.884084 438.217911 -1497.886882
1355.299878 432.577722 -1484.317795
1352.330899 432.683205 -1486.118930
1349.362042 432.788686 -1487.920055
1337.658400 429.965460 -1481.081755
1334.707085 430.070318 -1482.872238
1331.755881 430.175169 -1484.662591
1328.804687 430.280025 -1486.453065
1325.853484 430.384877 -1488.243418
1322.902290 430.489733 -1490.033892
1319.950965 430.594586 -1491.824254
1309.106398 428.010735 -1485.626511
1306.171341 428.115017 -1487.407185
1303.236276 428.219295 -1489.187737
1300.301331 428.323571 -1490.968280
1275.195071 423.007370 -1479.483877
1264.513995 420.417712 -1473.186990
1261.629102 420.520209 -1474.937151
1258.744087 420.622707 -1476.687321
1255.859203 420.725209 -1478.437603
1252.974309 420.827706 -1480.187764
1250.089416 420.930203 -1481.937924
1247.204531 421.032704 -1483.688206
1244.319516 421.135203 -1485.438376
1241.434623 421.237699 -1487.188537
1238.549739 421.340201 -1488.938819
1235.664845 421.442698 -1490.688980
292.539820 290.028718 -1353.152625
286.585846 290.240255 -1356.764685
284.601161 290.310769 -1357.968748
282.616506 290.381284 -1359.172809
280.631821 290.451798 -1360.376872
278.647166 290.522312 -1361.580932
243.697033 284.746097 -1352.583979
240.380169 283.514340 -1348.788488
239.804290 284.884404 -1354.945617
239.213708 286.254991 -1361.111702
237.259976 286.324402 -1362.296877
235.306253 286.393817 -1363.482175
233.352530 286.463232 -1364.667472
231.398807 286.532647 -1365.852769
229.445084 286.602063 -1367.038066
227.491352 286.671473 -1368.223242
225.537629 286.740888 -1369.408539
1742.732435 482.658094 -1540.954357
1739.393687 482.776719 -1542.979933
1736.054930 482.895339 -1545.005388
1732.716173 483.013959 -1547.030843
1729.377547 483.132582 -1549.056410
1726.038799 483.251207 -1551.081986
1722.700042 483.369827 -1553.107441
1719.361407 483.488446 -1555.132887
1704.677143 480.255375 -1547.778931
1701.358970 480.373264 -1549.791921
1698.040918 480.491152 -1551.804901
1694.722867 480.609040 -1553.817881
1691.404703 480.726935 -1555.830992
1688.086651 480.844822 -1557.843972
1684.768600 480.962710 -1559.856952
1636.487177 470.877347 -1538.037365
1633.233909 470.992932 -1540.011004
1629.980642 471.108516 -1541.984643
1626.727384 471.224106 -1543.958404
1623.474116 471.339690 -1545.932043
1581.515062 461.834332 -1523.761561
1578.322263 461.947773 -1525.698636
1575.129465 462.061214 -1527.635711
1547.698428 455.794412 -1512.913860
1544.545384 455.906437 -1514.826725
1541.392339 456.018462 -1516.739589
1538.239295 456.130487 -1518.652454
1535.086251 456.242511 -1520.565319
1531.933206 456.354536 -1522.478183
1528.780050 456.466568 -1524.391179
1477.056941 447.844516 -1510.467606
1426.888338 439.435384 -1496.762523
1423.848734 439.543381 -1498.606627
1411.844656 436.751512 -1491.949929
1408.822706 436.858879 -1493.783261
1405.800634 436.966248 -1495.616602
1402.778806 437.073614 -1497.449924
1399.756855 437.180981 -1499.283255
1387.858963 434.385309 -1492.562147
1384.854545 434.492048 -1494.384715
1381.850380 434.598788 -1496.207386
1378.846084 434.705526 -1498.029944
1355.262326 429.106682 -1484.459174
1349.324489 429.317646 -1488.061434
1337.621071 426.515062 -1481.222293
1334.669756 426.619920 -1483.012776
1331.718552 426.724771 -1484.803129
1328.767358 426.829627 -1486.593603
1325.816155 426.934479 -1488.383956
1322.864961 427.039335 -1490.174430
1312.004340 424.475025 -1483.985724
1309.069274 424.579302 -1485.766276
1306.134218 424.683585 -1487.546950
1303.199152 424.787862 -1489.327503
1300.264207 424.892138 -1491.108046
1278.059529 419.512472 -1477.862059
1275.158376 419.615544 -1479.622029
1272.257354 419.718619 -1481.382112
1261.592612 417.147348 -1475.074531
1258.707596 417.249847 -1476.824701
1255.822712 417.352348 -1478.574983
1252.937819 417.454845 -1480.325143
1250.052925 417.557342 -1482.075304
1247.168041 417.659844 -1483.825586
1244.283026 417.762342 -1485.575756
1241.398132 417.864839 -1487.325917
1238.513248 417.967340 -1489.076199
290.530062 287.778873 -1354.451196
288.545367 287.849383 -1355.655137
286.560743 287.919896 -1356.859196
284.576057 287.990411 -1358.063259
282.591403 288.060925 -1359.267319
280.606717 288.131440 -1360.471382
278.622062 288.201954 -1361.675443
276.637377 288.272468 -1362.879506
274.652722 288.342982 -1364.083567
243.672414 282.470529 -1352.676665
241.726028 282.539683 -1353.857485
239.779671 282.608836 -1355.038303
239.188996 283.970825 -1361.204738
237.235264 284.040235 -1362.389914
235.281541 284.109651 -1363.575211
233.327818 284.179066 -1364.760508
231.374095 284.248481 -1365.945805
228.101524 283.023749 -1362.123089
226.155168 283.092902 -1363.303907
224.208812 283.162055 -1364.484724
1742.690204 478.754668 -1541.113347
1739.351457 478.873293 -1543.138923
1736.012699 478.991913 -1545.164378
1732.673942 479.110533 -1547.189833
1729.335317 479.229156 -1549.215400
1725.996569 479.347781 -1551.240977
1722.657812 479.466401 -1553.266431
1719.319177 479.585020 -1555.291877
1704.635174 476.376067 -1547.936939
1701.317000 476.493956 -1549.949928
1697.998949 476.611844 -1551.962909
1694.680897 476.729732 -1553.975889
1691.362733 476.847626 -1555.989000
1688.044682 476.965514 -1558.001980
1684.726630 477.083402 -1560.014960
1642.952553 466.842665 -1534.244886
1639.699285 466.958249 -1536.218525
1636.446027 467.073839 -1538.192286
1633.192760 467.189423 -1540.165925
1629.939492 467.305008 -1542.139564
1626.686234 467.420597 -1544.113325
1623.432967 467.536182 -1546.086964
1581.474677 458.101439 -1523.913605
1578.281878 458.214880 -1525.850680
1575.089080 458.328321 -1527.787756
1547.658546 452.108048 -1513.064009
1544.505502 452.220073 -1514.976874
1541.352457 452.332098 -1516.889738
1538.199413 452.444122 -1518.802603
1535.046369 452.556147 -1520.715468
1531.893324 452.668172 -1522.628332
1528.740168 452.780204 -1524.541328
1477.017786 444.225292 -1510.615021
1473.922281 444.335274 -1512.493014
1411.806432 433.218424 -1492.093835
1408.784482 433.325791 -1493.927167
1396.833600 430.552710 -1487.237431
1393.829425 430.659446 -1489.059980
1390.825129 430.766183 -1490.882539
1387.820964 430.872923 -1492.705210
1384.816546 430.979663 -1494.527778
1381.812380 431.086403 -1496.350449
1355.224773 425.635612 -1484.600554
1337.583742 423.064664 -1481.362831
1334.632427 423.169522 -1483.153314
1331.681223 423.274373 -1484.943667
1328.730029 423.379229 -1486.734141
1325.778826 423.484081 -1488.524494
1322.827632 423.588937 -1490.314968
1311.967216 421.043592 -1484.125489
1309.032150 421.147869 -1485.906042
1306.097094 421.252152 -1487.686716
1303.162028 421.356429 -1489.467268
1300.227083 421.460705 -1491.247811
1297.292149 421.564985 -1493.028476
1294.357083 421.669263 -1494.809028
1275.121680 416.223718 -1479.760182
1272.220659 416.326793 -1481.520264
1269.319506 416.429866 -1483.280234
1258.671106 413.876986 -1476.962081
1255.786222 413.979488 -1478.712363
1252.901329 414.081985 -1480.462523
1250.016435 414.184481 -1482.212684
1247.131551 414.286983 -1483.962966
1244.246536 414.389481 -1485.713136
1241.361642 414.491978 -1487.463296
1238.476758 414.594480 -1489.213579
303.982139 286.312080 -1352.177775
301.990087 286.382857 -1353.386317
299.998056 286.453628 -1354.594736
298.006004 286.524405 -1355.803278
296.013983 286.595181 -1357.011818
294.021961 286.665957 -1358.220358
290.504959 285.458545 -1354.545705
288.520264 285.529055 -1355.749646
286.535640 285.599568 -1356.953705
284.550954 285.670083 -1358.157768
282.566299 285.740597 -1359.361828
280.581614 285.811111 -1360.565891
278.596959 285.881626 -1361.769952
276.612274 285.952140 -1362.974015
274.627619 286.022654 -1364.178076
272.642955 286.093163 -1365.382015
245.025484 281.478382 -1357.741882
243.071730 281.547798 -1358.927181
241.118038 281.617213 -1360.112476
239.164284 281.686628 -1361.297776
237.210552 281.756039 -1362.482951
235.256829 281.825454 -1363.668248
233.303106 281.894869 -1364.853546
231.349383 281.964284 -1366.038843
228.076905 280.748181 -1362.215775
226.130549 280.817334 -1363.396593
224.184193 280.886487 -1364.577411
1742.647974 474.851212 -1541.272339
1739.309226 474.969837 -1543.297915
1735.970469 475.088457 -1545.323370
1732.631712 475.207077 -1547.348825
1729.293086 475.325700 -1549.374392
1725.954338 475.444325 -1551.399968
1722.615581 475.562945 -1553.425423
1719.276946 475.681563 -1555.450868
1715.938198 475.800188 -1557.476445
1697.956979 472.732536 -1552.120917
1694.638928 472.850424 -1554.133897
1691.320764 472.968318 -1556.147008
1688.002712 473.086206 -1558.159988
1684.684661 473.204094 -1560.172968
1642.911403 463.039156 -1534.399807
1639.658136 463.154740 -1536.373446
1636.404878 463.270330 -1538.347206
1633.151610 463.385915 -1540.320845
1629.898343 463.501499 -1542.294484
1626.645085 463.617089 -1544.268245
1623.391818 463.732673 -1546.241884
1581.434291 454.368516 -1524.065650
1578.241492 454.481957 -1526.002726
1575.048694 454.595398 -1527.939801
1547.618664 448.421653 -1513.214159
1544.465619 448.533678 -1515.127024
1541.312575 448.645703 -1517.039889
1538.159531 448.757728 -1518.952753
1535.006486 448.869753 -1520.865618
1531.853442 448.981778 -1522.778483
1528.700286 449.093809 -1524.691478
1486.265502 440.276143 -1505.128304
1483.169884 440.386131 -1507.006428
1480.074257 440.496115 -1508.884431
1476.978631 440.606099 -1510.762434
1473.883125 440.716081 -1512.640427
1470.787377 440.826066 -1514.518439
1457.865925 437.843390 -1507.255239
1454.789478 437.952693 -1509.121619
1414.790159 429.577999 -1490.404409
1411.768209 429.685366 -1492.237740
1408.746259 429.792733 -1494.071072
1396.795600 427.040294 -1487.380495
1393.791425 427.147030 -1489.203044
1390.787129 427.253767 -1491.025603
1387.782964 427.360508 -1492.848274
1384.778546 427.467247 -1494.670842
1381.774380 427.573987 -1496.493513
1337.546413 419.614297 -1481.503368
1334.595098 419.719155 -1483.293851
1331.643894 419.824006 -1485.084204
1328.692700 419.928862 -1486.874678
1325.741497 420.033713 -1488.665031
1314.865036 417.507883 -1482.484712
1311.930092 417.612159 -1484.265255
1308.995026 417.716436 -1486.045807
1306.059970 417.820719 -1487.826481
1303.124904 417.924996 -1489.607034
1300.189960 418.029272 -1491.387577
1277.986138 412.728851 -1478.138363
1275.084985 412.831923 -1479.898333
1272.183964 412.934998 -1481.658415
1261.519631 410.401597 -1475.349292
1258.634616 410.504095 -1477.099462
1255.749731 410.606597 -1478.849744
1252.864838 410.709093 -1480.599904
1249.979944 410.811590 -1482.350065
1247.095060 410.914092 -1484.100347
1244.210045 411.016590 -1485.850517
1241.325152 411.119087 -1487.600678
1230.806768 408.580532 -1481.203052
1227.938003 408.682450 -1482.943291
343.252220 288.411531 -1353.991140
341.227771 288.483457 -1355.219292
339.203322 288.555383 -1356.447444
335.181014 287.109789 -1351.917279
333.165397 287.181402 -1353.140105
331.149780 287.253015 -1354.362932
329.134163 287.324629 -1355.585758
329.081058 288.915018 -1362.588329
327.056609 288.986944 -1363.816481
303.956943 283.983123 -1352.272636
301.964891 284.053900 -1353.481178
299.972860 284.124671 -1354.689596
297.980808 284.195448 -1355.898139
295.988786 284.266224 -1357.106679
293.996765 284.337000 -1358.315219
292.004713 284.407777 -1359.523761
288.495161 283.208696 -1355.844157
286.510536 283.279210 -1357.048215
284.525851 283.349724 -1358.252278
282.541196 283.420238 -1359.456339
280.556511 283.490753 -1360.660402
278.571856 283.561267 -1361.864463
276.587171 283.631781 -1363.068525
274.602516 283.702296 -1364.272586
272.617852 283.772805 -1365.476525
248.908197 279.055391 -1355.464448
246.954495 279.124801 -1356.649621
245.000772 279.194216 -1357.834918
243.047018 279.263632 -1359.020218
241.093326 279.333046 -1360.205512
239.139572 279.402462 -1361.390812
237.185840 279.471872 -1362.575988
235.232117 279.541287 -1363.761285
234.611728 280.887099 -1369.946343
232.650638 280.956776 -1371.136120
229.370948 279.749533 -1367.317176
227.417215 279.818943 -1368.502352
225.463492 279.888359 -1369.687649
203.465729 278.022390 -1371.415932
1755.960509 470.473299 -1533.329285
1739.266996 471.066411 -1543.456905
1735.928239 471.185031 -1545.482360
1732.589481 471.303651 -1547.507815
1729.250856 471.422274 -1549.533382
1725.912108 471.540899 -1551.558958
1722.573351 471.659519 -1553.584413
1707.869286 468.499532 -1546.239976
1704.551234 468.617420 -1548.252956
1701.233061 468.735310 -1550.265946
1697.915010 468.853198 -1552.278926
1694.596958 468.971085 -1554.291906
1691.278794 469.088980 -1556.305017
1687.960743 469.206868 -1558.317997
1684.642691 469.324756 -1560.330977
1642.870254 459.235617 -1534.554728
1639.616986 459.351201 -1536.528368
1636.363728 459.466791 -1538.502128
1633.110461 459.582375 -1540.475767
1587.779643 450.408749 -1520.343778
1584.586835 450.522186 -1522.280732
1581.393905 450.635623 -1524.217695
1578.201107 450.749065 -1526.154770
1575.008309 450.862506 -1528.091845
1544.425737 444.847314 -1515.277173
1541.272693 444.959339 -1517.190038
1538.119649 445.071364 -1519.102902
1534.966604 445.183389 -1521.015767
1531.813560 445.295414 -1522.928632
1528.660404 445.407445 -1524.841627
1486.226347 436.656949 -1505.275717
1483.130729 436.766938 -1507.153841
1480.035102 436.876922 -1509.031844
1476.939475 436.986905 -1510.909847
1473.843970 437.096887 -1512.787841
1470.748222 437.206873 -1514.665853
1457.827012 434.246576 -1507.401741
1454.750565 434.355879 -1509.268120
1408.708035 426.259645 -1494.214978
1396.757600 423.527909 -1487.523558
1393.753425 423.634645 -1489.346107
1390.749129 423.741382 -1491.168666
1387.744964 423.848123 -1492.991336
1384.740546 423.954862 -1494.813904
1381.736381 424.061602 -1496.636575
1337.509084 416.163899 -1481.643906
1334.557769 416.268757 -1483.434389
1331.606565 416.373608 -1485.224742
1328.655371 416.478464 -1487.015216
1325.704168 416.583315 -1488.805569
1314.827912 414.076420 -1482.624478
1311.892968 414.180696 -1484.405022
1308.957902 414.284973 -1486.185574
1306.022845 414.389255 -1487.966248
1280.850586 409.233948 -1476.516423
1277.949443 409.337025 -1478.276515
1275.048290 409.440097 -1480.036485
1272.147268 409.543172 -1481.796567
1261.483140 407.028736 -1475.486672
1258.598125 407.131234 -1477.236841
1255.713241 407.233736 -1478.987124
1252.828348 407.336233 -1480.737284
1249.943454 407.438730 -1482.487445
1247.058570 407.541231 -1484.237727
1244.173555 407.643730 -1485.987897
1233.639229 405.124678 -1479.599179
1230.770483 405.226606 -1481.339660
1227.901718 405.328524 -1483.079899
353.348869 285.685035 -1347.946539
351.324399 285.756966 -1349.174815
349.299950 285.828892 -1350.402967
347.275502 285.900818 -1351.631119
345.251083 285.972744 -1352.859269
343.226613 286.044675 -1354.087545
341.202165 286.116601 -1355.315697
339.177716 286.188527 -1356.543849
337.153237 286.260453 -1357.772003
333.139902 284.824851 -1353.236090
331.124285 284.896465 -1354.458916
329.108668 284.968078 -1355.681743
329.055451 286.548161 -1362.684733
327.031002 286.620087 -1363.912885
303.931746 281.654136 -1352.367498
301.939694 281.724912 -1353.576040
299.947663 281.795684 -1354.784458
297.955611 281.866461 -1355.993001
295.963589 281.937237 -1357.201540
293.971568 282.008013 -1358.410080
291.979516 282.078790 -1359.618623
289.987485 282.149561 -1360.827041
286.485433 280.958851 -1357.142726
284.500747 281.029366 -1358.346789
282.516093 281.099880 -1359.550849
280.531407 281.170394 -1360.754912
278.546752 281.240908 -1361.958973
276.562067 281.311423 -1363.163036
274.577412 281.381937 -1364.367097
272.592748 281.452446 -1365.571036
270.608063 281.522961 -1366.775099
268.623408 281.593475 -1367.979159
266.638723 281.663989 -1369.183222
248.883485 276.771194 -1355.557485
246.929783 276.840604 -1356.742658
244.976060 276.910019 -1357.927956
243.022306 276.979435 -1359.113255
241.068614 277.048850 -1360.298550
239.114860 277.118265 -1361.483850
237.161128 277.187675 -1362.669025
236.548012 278.524627 -1368.849955
234.586923 278.594304 -1370.039731
231.299959 277.395921 -1366.224917
229.346236 277.465336 -1367.410214
227.392503 277.534747 -1368.595389
225.438780 277.604162 -1369.780687
205.380193 275.686560 -1370.331928
203.441204 275.755451 -1371.508267
198.347861 274.621245 -1368.789285
196.416238 274.689874 -1369.961144
194.484615 274.758502 -1371.133004
159.496139 273.371347 -1380.741819
157.579220 273.439452 -1381.904722
155.662340 273.507561 -1383.067745
1759.257026 466.451248 -1531.462699
1755.918279 466.569873 -1533.488275
1752.579775 466.688495 -1535.513833
1745.902260 466.925735 -1539.564743
1742.563513 467.044360 -1541.590319
1739.224765 467.162985 -1543.615895
1735.886008 467.281605 -1545.641350
1732.547251 467.400225 -1547.666805
1729.208625 467.518848 -1549.692372
1725.869878 467.637473 -1551.717949
1722.531121 467.756093 -1553.743403
1707.827317 464.620224 -1546.397984
1704.509265 464.738112 -1548.410964
1701.191092 464.856002 -1550.423953
1697.873040 464.973889 -1552.436934
1694.554989 465.091777 -1554.449914
1691.236825 465.209672 -1556.463025
1687.918773 465.327560 -1558.476005
1684.600722 465.445448 -1560.488985
1642.829104 455.432108 -1534.709649
1639.575837 455.547693 -1536.683288
1636.322579 455.663282 -1538.657049
1633.069311 455.778867 -1540.630688
1618.719036 452.630441 -1533.070879
1615.486474 452.745294 -1535.032043
1587.739257 446.675857 -1520.495822
1584.546450 446.789293 -1522.432776
1581.353520 446.902731 -1524.369739
1578.160722 447.016172 -1526.306814
1574.967923 447.129613 -1528.243890
1538.079766 441.384969 -1519.253053
1534.926722 441.496994 -1521.165917
1531.773678 441.609019 -1523.078782
1486.187191 433.037756 -1505.423130
1483.091574 433.147744 -1507.301255
1479.995947 433.257728 -1509.179257
1476.900320 433.367712 -1511.057260
1473.804815 433.477694 -1512.935254
1470.709066 433.587679 -1514.813266
1457.788099 430.649763 -1507.548243
1454.711652 430.759066 -1509.414622
1396.719600 420.015493 -1487.666622
1393.715425 420.122229 -1489.489171
1390.711129 420.228966 -1491.311730
1387.706964 420.335707 -1493.134400
1337.471756 412.713531 -1481.784442
1334.520440 412.818389 -1483.574926
1331.569236 412.923240 -1485.365279
1328.618042 413.028096 -1487.155753
1325.666839 413.132948 -1488.946105
1314.790788 410.644987 -1482.764244
1270.101321 403.348380 -1470.373448
1267.216428 403.450877 -1472.123609
1264.331544 403.553379 -1473.873891
1261.446650 403.655875 -1475.624051
1258.561635 403.758374 -1477.374221
1247.946359 401.261142 -1471.034013
1245.077725 401.363064 -1472.774364
1249.906964 404.065869 -1482.624825
1239.340334 401.566908 -1476.255076
1236.471578 401.668831 -1477.995436
1233.602944 401.770752 -1479.735787
1230.734197 401.872680 -1481.476269
1227.865432 401.974598 -1483.216508
353.323262 283.318148 -1348.042944
351.298792 283.390079 -1349.271220
349.274343 283.462005 -1350.499372
347.249895 283.533931 -1351.727525
345.225476 283.605857 -1352.955674
343.201007 283.677788 -1354.183950
339.161207 282.253496 -1349.663720
337.145620 282.325109 -1350.886544
335.130024 282.396717 -1352.109247
333.114407 282.468331 -1353.332073
331.098790 282.539944 -1354.554900
331.054323 284.109348 -1361.552984
329.029844 284.181274 -1362.781138
327.005395 284.253200 -1364.009290
305.898601 279.254402 -1351.253816
303.906549 279.325179 -1352.462358
301.914497 279.395956 -1353.670901
299.922466 279.466727 -1354.879319
297.930414 279.537504 -1356.087861
295.938393 279.608280 -1357.296401
293.946371 279.679056 -1358.504941
291.954319 279.749833 -1359.713483
289.962288 279.820604 -1360.921902
286.460329 278.638493 -1357.237236
284.475644 278.709007 -1358.441299
282.490989 278.779521 -1359.645360
280.506304 278.850036 -1360.849423
278.521649 278.920550 -1362.053483
276.536964 278.991064 -1363.257546
274.552309 279.061578 -1364.461607
272.567645 279.132088 -1365.665546
270.582959 279.202602 -1366.869609
268.598304 279.273116 -1368.073670
266.613619 279.343631 -1369.277733
252.211984 275.674427 -1359.425493
248.858773 274.487028 -1355.650522
246.905071 274.556438 -1356.835695
244.951348 274.625853 -1358.020992
242.997594 274.695268 -1359.206291
241.043902 274.764683 -1360.391586
239.090148 274.834099 -1361.576886
237.136416 274.903509 -1362.762061
236.523207 276.231831 -1368.943342
233.228970 275.042340 -1365.132656
231.275247 275.111755 -1366.317953
229.321524 275.181170 -1367.503250
227.367791 275.250580 -1368.688426
225.414068 275.319995 -1369.873723
197.108106 271.099582 -1363.809384
196.391805 272.431533 -1370.053129
194.460182 272.500162 -1371.224988
192.528529 272.568791 -1372.396850
162.215584 269.726215 -1373.359268
160.306041 269.794063 -1374.517814
158.396548 269.861905 -1375.676233
157.554973 271.198338 -1381.996005
155.638093 271.266448 -1383.159027
153.721204 271.334552 -1384.321928
1759.214796 462.547822 -1531.621689
1755.876048 462.666447 -1533.647265
1752.537544 462.785069 -1535.672823
1749.198787 462.903689 -1537.698278
1745.860030 463.022309 -1539.723733
1742.521283 463.140934 -1541.749309
1735.843778 463.378178 -1545.800341
1732.505021 463.496798 -1547.825795
1729.166395 463.615422 -1549.851363
1725.827647 463.734046 -1551.876939
1722.488890 463.852667 -1553.902394
1707.785347 460.740916 -1546.555992
1704.467296 460.858804 -1548.568972
1701.149122 460.976694 -1550.581961
1697.831071 461.094581 -1552.594942
1694.513019 461.212469 -1554.607922
1691.194855 461.330364 -1556.621033
1687.876804 461.448252 -1558.634013
1684.558752 461.566140 -1560.646993
1681.240579 461.684029 -1562.659983
1636.281430 451.859774 -1538.811969
1633.028162 451.975358 -1540.785608
1629.774895 452.090943 -1542.759247
1615.445585 448.965873 -1535.185983
1612.213014 449.080720 -1537.147026
1587.698872 442.942964 -1520.647867
1584.506064 443.056400 -1522.584820
1581.313135 443.169838 -1524.521783
1578.120336 443.283279 -1526.458859
1574.927538 443.396721 -1528.395934
1571.734608 443.510158 -1530.332897
1538.039884 437.698575 -1519.403203
1534.886840 437.810600 -1521.316068
1531.733796 437.922624 -1523.228933
1486.148036 429.418532 -1505.570545
1483.052418 429.528520 -1507.448669
1470.054965 426.615733 -1500.229106
1466.978639 426.725034 -1502.095476
1463.902080 426.834344 -1503.961986
1460.825623 426.943642 -1505.828244
1457.749186 427.052949 -1507.694744
1454.672738 427.162252 -1509.561123
1451.596291 427.271555 -1511.427503
1396.681600 416.503108 -1487.809684
1393.677426 416.609844 -1489.632234
1390.673129 416.716581 -1491.454792
1387.668964 416.823322 -1493.277463
1337.434426 409.263133 -1481.924980
1334.483111 409.367991 -1483.715464
1331.531907 409.472842 -1485.505817
1328.580713 409.577698 -1487.296291
1325.629510 409.682550 -1489.086643
1322.678316 409.787406 -1490.877118
1270.064831 399.975520 -1470.510828
1267.179938 400.078016 -1472.260989
1264.295053 400.180518 -1474.011271
1261.410160 400.283015 -1475.761431
1250.778830 397.805324 -1469.430260
1247.910074 397.907247 -1471.170621
1245.041439 398.009168 -1472.910972
1242.172683 398.111091 -1474.651332
1239.304049 398.213012 -1476.391683
1236.435293 398.314935 -1478.132043
1233.566659 398.416857 -1479.872394
1230.697912 398.518785 -1481.612876
1227.829147 398.620703 -1483.353115
389.533337 283.817188 -1344.746702
387.485293 283.889952 -1345.989141
385.437279 283.962714 -1347.231577
355.322104 280.879366 -1346.911197
353.297656 280.951292 -1348.139349
351.273186 281.023223 -1349.367625
349.248737 281.095149 -1350.595777
347.224288 281.167074 -1351.823929
345.199870 281.239000 -1353.052079
343.175400 281.310931 -1354.280355
339.135712 279.896976 -1349.759704
337.120126 279.968589 -1350.982528
335.104530 280.040197 -1352.205230
333.088912 280.111810 -1353.428057
331.073295 280.183424 -1354.650883
331.028717 281.742491 -1361.649388
329.004238 281.814418 -1362.877543
326.979789 281.886343 -1364.105695
305.873405 276.925445 -1351.348677
303.881353 276.996222 -1352.557219
301.889301 277.066999 -1353.765761
299.897270 277.137770 -1354.974180
297.905218 277.208547 -1356.182722
295.913196 277.279323 -1357.391262
293.921175 277.350099 -1358.599802
291.929123 277.420876 -1359.808344
289.937092 277.491647 -1361.016762
286.435226 276.318134 -1357.331746
284.450540 276.388648 -1358.535809
282.465886 276.459163 -1359.739870
280.481200 276.529677 -1360.943933
278.496546 276.600191 -1362.147994
276.511860 276.670706 -1363.352057
274.527205 276.741220 -1364.556117
272.542541 276.811729 -1365.760056
270.557856 276.882244 -1366.964119
267.129576 275.706145 -1363.234438
265.152287 275.776397 -1364.434019
263.174969 275.846650 -1365.633603
252.187178 273.381632 -1359.518881
248.834061 272.202861 -1355.743558
246.880359 272.272271 -1356.928731
244.926636 272.341686 -1358.114028
242.972882 272.411102 -1359.299328
241.019190 272.480517 -1360.484623
239.065436 272.549932 -1361.669922
237.111704 272.619343 -1362.855098
236.498402 273.939036 -1369.036730
233.204258 272.758173 -1365.225692
231.250535 272.827588 -1366.410989
229.296812 272.897004 -1367.596286
227.343079 272.966414 -1368.781462
225.389356 273.035829 -1369.966759
195.159511 268.918206 -1365.068398
193.235224 268.986573 -1366.235781
191.310999 269.054939 -1367.403158
178.982716 270.790856 -1380.691973
177.051093 270.859485 -1381.863832
164.100954 267.425857 -1372.291780
162.191431 267.493700 -1373.450201
160.281888 267.561547 -1374.608746
158.372395 267.629389 -1375.767165
156.462842 267.697232 -1376.925589
154.553329 267.765079 -1378.084132
153.696958 269.093438 -1384.413211
1762.511323 458.525776 -1529.755224
1759.172566 458.644396 -1531.780679
1755.833818 458.763021 -1533.806256
1752.495314 458.881643 -1535.831814
1749.156557 459.000263 -1537.857268
1745.817800 459.118883 -1539.882723
1742.479052 459.237508 -1541.908300
1735.801548 459.474752 -1545.959331
1732.462790 459.593372 -1547.984786
1729.124165 459.711996 -1550.010353
1725.785417 459.830620 -1552.035929
1722.446660 459.949240 -1554.061384
1707.743378 456.861608 -1546.714000
1704.425326 456.979496 -1548.726980
1701.107153 457.097385 -1550.739969
1697.789101 457.215273 -1552.752949
1694.471050 457.333161 -1554.765930
1691.152886 457.451056 -1556.779041
1687.834834 457.568944 -1558.792021
1684.516783 457.686831 -1560.805001
1681.198610 457.804721 -1562.817991
1636.240280 448.056234 -1538.966891
1632.987012 448.171819 -1540.940530
1629.733745 448.287404 -1542.914169
1615.404697 445.186482 -1535.339921
1612.172125 445.301330 -1537.300964
1587.658487 439.210071 -1520.799911
1584.465679 439.323508 -1522.736865
1581.272749 439.436946 -1524.673828
1578.079951 439.550387 -1526.610903
1538.000002 434.012211 -1519.553352
1534.846958 434.124235 -1521.466217
1531.693914 434.236260 -1523.379082
1470.016052 423.018950 -1500.375607
1466.939727 423.128251 -1502.241977
1463.863167 423.237561 -1504.108487
1460.786711 423.346859 -1505.974744
1457.710273 423.456166 -1507.841245
1454.633826 423.565469 -1509.707624
1451.557378 423.674772 -1511.574003
1448.480931 423.784075 -1513.440382
1396.643600 412.990692 -1487.952748
1393.639425 413.097428 -1489.775298
1390.635129 413.204165 -1491.597856
1387.630964 413.310906 -1493.420527
1384.626546 413.417645 -1495.243095
1381.622381 413.524386 -1497.065766
1378.618084 413.631123 -1498.888325
1343.299495 405.603028 -1478.484692
1340.348291 405.707879 -1480.275044
1337.397097 405.812735 -1482.065518
1334.445782 405.917593 -1483.856002
1331.494578 406.022444 -1485.646355
1328.543384 406.127300 -1487.436829
1325.592181 406.232152 -1489.227181
1322.640987 406.337008 -1491.017656
1270.028340 396.602629 -1470.648209
1267.143447 396.705125 -1472.398370
1264.258563 396.807627 -1474.148652
1261.373669 396.910124 -1475.898812
1250.742544 394.451398 -1469.566869
1247.873788 394.553321 -1471.307229
1245.005154 394.655242 -1473.047580
1242.136398 394.757165 -1474.787941
