# .PCD v.7 - Point Cloud Data file format
VERSION .7
FIELDS x y z
SIZE 4 4 4
TYPE F F F
COUNT 1 1 1
WIDTH 1373
HEIGHT 1
POINTS 1373
DATA ascii
850.125028 664.027336 -1914.627755
795.413648 652.083856 -1902.634091
792.337201 652.193159 -1904.500470
716.842543 637.427195 -1893.529333
708.929051 633.435348 -1884.427066
705.942479 633.541459 -1886.238968
663.695899 626.496362 -1884.062284
660.744704 626.601218 -1885.852758
657.793440 626.706070 -1887.643115
654.842185 626.810927 -1889.433594
622.602436 619.766417 -1882.344693
619.685155 619.870068 -1884.114585
612.672869 616.202255 -1875.624066
609.771726 616.305332 -1877.384157
563.305406 606.205450 -1867.340112
560.452909 606.306797 -1869.070662
513.566572 600.494787 -1873.184708
507.120055 596.806870 -1864.350863
504.314719 596.906544 -1866.052844
498.243413 593.561421 -1858.150102
495.452780 593.660571 -1859.843126
472.067131 587.013663 -1849.699950
469.307450 587.111708 -1851.374087
466.547780 587.209759 -1853.048345
460.669492 583.857718 -1845.028541
457.924554 583.955244 -1846.693841
424.788398 581.571711 -1855.210570
419.131131 578.211816 -1847.056630
413.503340 574.850938 -1838.884893
410.802603 574.946891 -1840.523317
408.101845 575.042850 -1842.161864
386.587941 569.041616 -1833.200290
367.845340 566.146632 -1832.984859
365.187318 566.241068 -1834.597377
362.529295 566.335504 -1836.209895
341.922509 560.658098 -1827.856557
336.659535 560.845089 -1831.049512
331.396531 561.032080 -1834.242468
326.501980 558.001201 -1826.784289
323.883782 558.094225 -1828.372713
296.058752 552.673282 -1824.398602
293.467039 552.765364 -1825.970928
288.771387 549.727422 -1818.392176
284.102291 546.688541 -1810.797441
281.537124 546.779680 -1812.353664
278.971897 546.870819 -1813.909892
256.492343 544.464728 -1817.120236
253.940394 544.555398 -1818.668473
235.105556 539.171154 -1810.398701
232.578688 539.260932 -1811.931682
230.051821 539.350709 -1813.464662
225.699461 536.300572 -1805.677687
175.143449 532.399423 -1817.811128
172.653354 532.487890 -1819.321717
168.616336 529.426551 -1811.343465
166.139519 529.514549 -1812.846063
163.662763 529.602547 -1814.348656
159.846226 526.889431 -1807.395211
157.381222 526.977011 -1808.890664
154.916218 527.064590 -1810.386117
130.311071 522.241454 -1806.775728
127.869693 522.328196 -1808.256893
121.812087 519.694730 -1802.662950
119.382461 519.781054 -1804.136975
116.952774 519.867379 -1805.611004
114.523148 519.953703 -1807.085029
112.093583 520.040026 -1808.559049
109.663887 520.126346 -1810.032957
83.496460 515.714742 -1808.528920
81.088883 515.800286 -1809.989633
77.707031 513.071758 -1802.772516
74.348744 510.342393 -1795.541115
54.517345 508.554386 -1799.461900
38.780107 503.772243 -1791.630307
36.428534 503.855790 -1793.056878
28.717281 501.637170 -1789.624854
26.376066 501.720353 -1791.045249
24.034840 501.803531 -1792.465522
20.978556 499.063434 -1785.050839
18.649093 499.146199 -1786.464094
15.714724 496.757838 -1780.134253
13.395547 496.840235 -1781.541215
11.076483 496.922626 -1782.948045
3.565616 494.696887 -1779.394478
1.256788 494.778917 -1780.795141
1043.156678 697.798977 -1942.478516
1032.111034 692.875975 -1931.799629
1028.815083 692.993077 -1933.799171
955.003809 680.377967 -1928.756050
951.771187 680.492820 -1930.717219
942.205290 676.225947 -1921.457962
938.991786 676.340120 -1923.407512
935.778282 676.454294 -1925.357062
871.781812 664.199169 -1916.676775
868.628706 664.311194 -1918.589644
865.475671 664.423224 -1920.502630
856.353230 660.140658 -1910.974380
853.219305 660.252003 -1912.875625
850.085389 660.363352 -1914.776992
795.374735 648.487012 -1902.780594
792.298288 648.596315 -1904.646973
716.804544 633.914810 -1893.672396
713.800318 634.021551 -1895.495071
705.904702 630.049686 -1886.381192
660.707376 623.150850 -1885.993295
657.756111 623.255702 -1887.783652
625.482877 616.251974 -1880.713721
622.565535 616.355626 -1882.483618
619.648254 616.459277 -1884.253510
612.636173 612.810430 -1875.762218
609.735030 612.913507 -1877.522310
563.269325 602.870458 -1867.475949
560.416829 602.971806 -1869.206500
557.564332 603.073153 -1870.937051
507.084571 593.527067 -1864.484453
500.998727 590.199669 -1856.590092
498.208115 590.298814 -1858.282991
466.512873 583.983314 -1853.179761
463.753203 584.081364 -1854.854019
457.889835 580.746057 -1846.824554
455.144897 580.843583 -1848.489853
452.399951 580.941104 -1850.155031
424.753865 578.379720 -1855.340582
419.096784 575.037083 -1847.185940
413.469179 571.693401 -1839.013503
410.768442 571.789355 -1840.651926
408.067684 571.885313 -1842.290474
392.035880 569.265629 -1841.588500
367.811720 563.039038 -1833.111434
365.153697 563.133474 -1834.723952
362.495675 563.227910 -1836.336470
331.363247 557.955526 -1834.367779
326.468863 554.940137 -1826.908969
323.850665 555.033160 -1828.497394
321.232375 555.126185 -1830.085825
318.614177 555.219209 -1831.674249
298.617683 549.551175 -1822.949692
296.025971 549.643257 -1824.522018
293.434258 549.735338 -1826.094344
288.738773 546.712886 -1818.514961
286.160339 546.804498 -1820.079296
281.504678 543.780633 -1812.475818
278.939451 543.871772 -1814.032046
274.323554 540.846496 -1806.404480
271.771596 540.937161 -1807.952595
253.908116 541.571840 -1818.789997
251.356218 541.662505 -1820.338107
236.731488 538.992891 -1818.782541
232.546726 536.306645 -1812.052012
230.019859 536.396422 -1813.584993
225.667667 533.361774 -1805.797387
223.154077 533.451083 -1807.322377
175.111953 529.488189 -1817.929706
172.621858 529.576656 -1819.440294
168.585008 526.530867 -1811.461409
166.108191 526.618865 -1812.964007
163.631435 526.706863 -1814.466600
159.815048 524.007529 -1807.512593
157.350044 524.095108 -1809.008047
154.885040 524.182688 -1810.503500
130.280191 519.387084 -1806.891989
116.922042 517.026791 -1805.726704
114.492416 517.113115 -1807.200729
112.062851 517.199438 -1808.674749
109.633155 517.285758 -1810.148657
107.203529 517.372082 -1811.622681
103.681849 514.662312 -1804.489988
81.058431 512.985554 -1810.104280
77.676728 510.270808 -1802.886601
75.281015 510.355927 -1804.340044
72.885242 510.441046 -1805.793491
70.489468 510.526166 -1807.246938
56.860995 505.694928 -1798.134925
54.487321 505.779261 -1799.574934
38.750363 501.022944 -1791.742288
36.398790 501.106491 -1793.168859
28.687668 498.899945 -1789.736344
26.346452 498.983128 -1791.156739
24.005227 499.066306 -1792.577012
20.949092 496.339991 -1785.161768
18.619628 496.422756 -1786.575023
15.685390 494.046469 -1780.244690
13.366214 494.128866 -1781.651652
11.047149 494.211257 -1783.058482
5.845241 491.915533 -1778.103761
3.536413 491.997562 -1779.504424
1.227584 492.079591 -1780.905087
1043.114709 693.919669 -1942.636524
1032.069345 689.022523 -1931.956584
1028.773393 689.139625 -1933.956126
954.962921 676.598546 -1928.909990
951.730298 676.713399 -1930.871159
942.164644 672.468967 -1921.610988
938.951140 672.583140 -1923.560538
935.737636 672.697313 -1925.510088
865.435790 660.736860 -1920.652780
862.282684 660.848886 -1922.565649
853.179665 656.588019 -1913.024863
850.045749 656.699368 -1914.926230
792.259375 644.999532 -1904.793473
716.766544 630.402425 -1893.815459
713.762318 630.509166 -1895.638134
710.758022 630.615903 -1897.460693
702.880354 626.664085 -1888.335315
699.893782 626.770196 -1890.147218
663.621240 619.595566 -1884.343360
660.670046 619.700422 -1886.133834
657.718782 619.805274 -1887.924191
625.445977 612.841244 -1880.852644
622.528635 612.944896 -1882.622540
619.611354 613.048547 -1884.392432
612.599478 609.418604 -1875.900370
609.698335 609.521681 -1877.660462
563.233245 599.535467 -1867.611786
560.380748 599.636814 -1869.342337
557.528251 599.738162 -1871.072888
509.854463 590.147533 -1862.916184
503.754063 586.837913 -1855.029957
500.963430 586.937062 -1856.722981
466.477967 580.756868 -1853.311177
463.718296 580.854919 -1854.985435
457.855115 577.536808 -1846.955270
455.110177 577.634335 -1848.620569
452.365230 577.731856 -1850.285747
424.719331 575.187729 -1855.470595
419.062436 571.862288 -1847.315253
413.435019 568.535865 -1839.142112
410.734282 568.631818 -1840.780536
367.778100 559.931445 -1833.238009
365.120077 560.025881 -1834.850527
333.961428 554.785414 -1832.896556
331.329962 554.878912 -1834.493092
326.435746 551.879072 -1827.033649
323.817548 551.972096 -1828.622074
321.199258 552.065121 -1830.210505
316.358093 549.063345 -1822.719106
313.753142 549.155900 -1824.299542
288.706159 543.698288 -1818.637748
286.127724 543.789901 -1820.202083
283.549280 543.881508 -1821.766297
278.907005 540.872725 -1814.154200
276.341778 540.963865 -1815.710428
273.776612 541.055003 -1817.266651
241.776738 535.844430 -1815.823183
239.238057 535.934626 -1817.363308
236.699377 536.024822 -1818.903433
232.514765 533.352358 -1812.172343
229.987897 533.442135 -1813.705324
227.461029 533.531913 -1815.238304
224.934171 533.621695 -1816.771406
222.407243 533.711473 -1818.304391
219.880436 533.801250 -1819.837366
210.554133 530.958880 -1815.066793
180.060516 526.400077 -1815.026992
177.570430 526.488550 -1816.537702
175.080457 526.577015 -1818.048281
171.030497 523.547123 -1810.076758
167.178820 520.862858 -1803.143622
164.713877 520.950437 -1804.639071
162.248873 521.038016 -1806.134524
159.783869 521.125596 -1807.629977
109.602424 514.445171 -1810.264356
106.069079 511.749601 -1803.138246
103.651266 511.835506 -1804.605126
77.646425 507.469858 -1803.000687
75.250712 507.554977 -1804.454129
72.854939 507.640096 -1805.907576
67.136544 505.022124 -1800.106950
64.752584 505.106825 -1801.553253
62.368623 505.191526 -1802.999555
59.984663 505.276226 -1804.445858
56.830971 502.919803 -1798.247958
38.720619 498.273675 -1791.854269
36.369046 498.357222 -1793.280840
28.658054 496.162720 -1789.847834
26.316839 496.245903 -1791.268229
23.975613 496.329081 -1792.688502
20.919628 493.616548 -1785.272696
18.590164 493.699313 -1786.685951
15.656056 491.335069 -1780.355128
13.336880 491.417467 -1781.762089
11.017815 491.499858 -1783.168920
5.816038 489.216208 -1778.213707
3.507209 489.298237 -1779.614370
1.198381 489.380266 -1781.015033
1046.390903 689.922466 -1940.781421
1043.072739 690.040361 -1942.794532
1039.754688 690.158249 -1944.807512
1028.731703 685.286112 -1934.113083
951.689409 672.933978 -1931.025098
948.456786 673.048832 -1932.986267
945.224164 673.163685 -1934.947436
935.696989 668.940272 -1925.663116
865.395908 657.050496 -1920.802929
862.242802 657.162522 -1922.715798
853.140025 652.924035 -1913.174100
850.006109 653.035384 -1915.075468
795.296909 641.293385 -1903.073597
792.220461 641.402688 -1904.939976
789.144014 641.511991 -1906.806355
710.720021 627.103457 -1897.603758
702.842578 623.172372 -1888.477536
699.856006 623.278484 -1890.289439
696.869424 623.384591 -1892.101220
663.583912 616.145198 -1884.483896
660.632717 616.250054 -1886.274371
657.681453 616.354906 -1888.064728
625.409076 609.430454 -1880.991568
622.491735 609.534105 -1882.761465
619.574454 609.637756 -1884.531357
612.562783 606.026839 -1876.038520
609.661640 606.129916 -1877.798612
563.197165 596.200536 -1867.747621
560.344668 596.301884 -1869.478172
557.492172 596.403231 -1871.208723
509.818979 586.867668 -1863.049776
503.718765 583.575245 -1855.162848
500.928132 583.674395 -1856.855872
466.443061 577.530423 -1853.442593
463.683390 577.628474 -1855.116851
457.820395 574.327621 -1847.085983
455.075458 574.425147 -1848.751282
424.684798 571.995738 -1855.600608
419.028090 568.687555 -1847.444563
413.400858 565.378328 -1839.270722
410.700121 565.474281 -1840.909145
386.486521 559.667186 -1833.582120
383.813765 559.762146 -1835.203597
331.296677 551.802358 -1834.618403
328.665231 551.895850 -1836.214816
323.784431 548.911031 -1828.746754
318.930134 545.925279 -1821.262836
316.325144 546.017830 -1822.843153
313.720193 546.110385 -1824.423589
311.115202 546.202936 -1826.003906
288.673545 540.683752 -1818.760533
286.095111 540.775365 -1820.324868
283.516667 540.866972 -1821.889082
276.309332 537.964818 -1815.832582
273.744166 538.055956 -1817.388805
271.179000 538.147095 -1818.945028
241.744627 532.876362 -1815.944076
239.205947 532.966558 -1817.484200
236.667266 533.056754 -1819.024325
234.128585 533.146950 -1820.564450
229.955936 530.487909 -1813.825652
227.429068 530.577687 -1815.358632
224.902210 530.667469 -1816.891734
222.375281 530.757247 -1818.424719
219.848475 530.847024 -1819.957695
213.035990 527.930773 -1813.661499
210.522339 528.020082 -1815.186493
180.029020 523.488843 -1815.145569
177.538934 523.577315 -1816.656279
173.475925 520.563442 -1808.692109
169.612654 517.893381 -1801.765673
167.147641 517.980955 -1803.261005
164.682698 518.068534 -1804.756453
162.217694 518.156114 -1806.251907
112.001388 511.518263 -1808.906148
109.571692 511.604583 -1810.380056
106.038497 508.922795 -1803.253385
103.620684 509.008700 -1804.720265
77.616122 504.668877 -1803.114773
75.220409 504.753996 -1804.568216
72.824636 504.839116 -1806.021663
70.428862 504.924235 -1807.475110
67.106391 502.234956 -1800.220474
64.722430 502.319656 -1801.666777
62.338470 502.404357 -1803.113079
59.174621 500.060345 -1796.920983
56.800948 500.144679 -1798.360992
38.690875 495.524376 -1791.966250
36.339302 495.607923 -1793.392821
28.628441 493.425495 -1789.959324
26.287225 493.508678 -1791.379718
23.946000 493.591856 -1792.799991
20.890163 490.893074 -1785.383626
18.560699 490.975839 -1786.796881
15.626722 488.623700 -1780.465565
13.307546 488.706098 -1781.872526
10.988482 488.788489 -1783.279357
5.786834 486.516883 -1778.323653
3.478006 486.598912 -1779.724316
1.169177 486.680941 -1781.124979
1046.348934 686.043158 -1940.939429
1043.030770 686.161053 -1942.952540
1039.712718 686.278941 -1944.965520
1036.394667 686.396828 -1946.978500
1025.394010 681.549767 -1936.269707
1022.097998 681.666869 -1938.269254
951.648521 669.154618 -1931.179035
948.415898 669.269471 -1933.140204
945.183275 669.384325 -1935.101373
935.656343 665.183292 -1925.816141
932.442900 665.297465 -1927.765686
929.229397 665.411638 -1929.715236
871.662165 653.140015 -1917.127225
868.509060 653.252041 -1919.040094
865.356025 653.364071 -1920.953080
862.202920 653.476097 -1922.865950
853.100384 649.259990 -1913.323340
849.966468 649.371339 -1915.224708
846.832543 649.482684 -1917.125953
801.410942 637.477991 -1899.487213
798.334434 637.587295 -1901.353597
795.257996 637.696602 -1903.220097
792.181549 637.805905 -1905.086476
710.682021 623.591072 -1897.746821
707.677795 623.697813 -1899.569497
704.673499 623.804551 -1901.392055
696.831648 619.892878 -1892.243441
660.595389 612.799687 -1886.414907
657.644124 612.904539 -1888.205265
625.372176 606.019724 -1881.130491
622.454835 606.123375 -1882.900387
619.537554 606.227026 -1884.670279
612.526088 602.635013 -1876.176672
609.624944 602.738090 -1877.936764
560.308588 592.966892 -1869.614009
557.456091 593.068240 -1871.344560
509.783495 583.587865 -1863.183366
506.978120 583.687534 -1864.885226
500.892834 580.411788 -1856.988761
466.408155 574.303978 -1853.574009
463.648484 574.402028 -1855.248268
460.888804 574.500074 -1856.922404
427.380459 568.706741 -1854.074159
424.650264 568.803747 -1855.730621
418.993742 565.512761 -1847.573875
413.366697 562.220792 -1839.399331
410.665960 562.316745 -1841.037755
391.933901 559.839548 -1841.972434
386.452714 556.542335 -1833.709398
331.263392 548.725804 -1834.743714
328.631947 548.819297 -1836.340127
326.000410 548.912790 -1837.936547
318.897185 542.879704 -1821.386885
316.292194 542.972255 -1822.967202
313.687244 543.064810 -1824.547638
311.082253 543.157360 -1826.127955
288.640931 537.669155 -1818.883320
286.062496 537.760768 -1820.447656
283.484052 537.852375 -1822.011869
276.276885 534.965710 -1815.954738
273.711719 535.056848 -1817.510961
271.146553 535.147987 -1819.067184
246.155475 532.893167 -1823.799029
243.603587 532.983836 -1825.347261
239.173836 529.998489 -1817.605093
236.635155 530.088685 -1819.145217
234.096474 530.178882 -1820.685342
231.557864 530.269082 -1822.225584
229.019183 530.359278 -1823.765708
224.870248 527.713182 -1817.012065
222.343320 527.802960 -1818.545050
219.816513 527.892737 -1820.078025
215.517856 524.902732 -1812.256324
213.004196 524.992037 -1813.781196
210.490545 525.081346 -1815.306190
179.997524 520.577639 -1815.264145
175.921353 517.579730 -1807.307461
173.444597 517.667727 -1808.810054
169.581475 515.011448 -1801.883057
167.116462 515.099023 -1803.378389
111.970656 508.677675 -1809.021848
109.540960 508.763995 -1810.495756
106.007914 506.095989 -1803.368523
103.590101 506.181894 -1804.835403
101.172218 506.267795 -1806.302167
98.754405 506.353701 -1807.769047
77.585819 501.867927 -1803.228859
68.002837 502.208399 -1809.042516
64.692276 499.532488 -1801.780301
62.308316 499.617189 -1803.226603
59.144598 497.285221 -1797.034016
41.012634 492.691557 -1790.651542
38.661131 492.775107 -1792.078230
36.309558 492.858654 -1793.504802
28.598828 490.688270 -1790.070813
26.257612 490.771453 -1791.491208
23.916387 490.854631 -1792.911481
20.860699 488.169631 -1785.494554
18.531235 488.252396 -1786.907809
15.597388 485.912301 -1780.576003
13.278212 485.994698 -1781.982964
10.959148 486.077089 -1783.389795
5.757631 483.817558 -1778.433599
3.448802 483.899587 -1779.834262
1.139974 483.981616 -1781.234926
1046.306964 682.163789 -1941.097439
1042.988800 682.281684 -1943.110550
1039.670748 682.399572 -1945.123530
1036.352697 682.517459 -1947.136511
1025.352320 677.696254 -1936.426664
1022.056308 677.813356 -1938.426211
948.375009 665.490050 -1933.294144
945.142387 665.604904 -1935.255313
935.615697 661.426251 -1925.969169
932.402254 661.540423 -1927.918714
929.188750 661.654597 -1929.868264
874.775388 649.341626 -1915.364505
871.622283 649.453651 -1917.277374
868.469178 649.565677 -1919.190243
865.316143 649.677707 -1921.103229
856.194670 645.484661 -1911.571332
853.060745 645.596005 -1913.472578
849.926828 645.707355 -1915.373945
801.372029 633.881208 -1899.633713
798.295521 633.990512 -1901.500097
795.219083 634.099819 -1903.366598
707.639796 620.185428 -1899.712559
704.635499 620.292165 -1901.535118
701.631264 620.398902 -1903.357672
693.807238 616.507217 -1894.197572
663.509254 609.244463 -1884.764970
660.558060 609.349319 -1886.555444
657.606796 609.454171 -1888.345802
622.417934 602.712585 -1883.039312
619.500653 602.816235 -1884.809204
612.489392 599.243188 -1876.314825
609.588249 599.346265 -1878.074916
578.483143 592.807044 -1871.449856
575.614387 592.908967 -1873.190216
572.745692 593.010889 -1874.930572
563.125004 589.530554 -1868.019296
557.420010 589.733249 -1871.480398
516.209693 583.900573 -1872.144736
509.748011 580.308000 -1863.316958
506.942635 580.407669 -1865.018819
500.857537 577.149181 -1857.121650
466.373249 571.077533 -1853.705426
463.613578 571.175583 -1855.379684
460.853898 571.273629 -1857.053820
452.261071 568.104232 -1850.677889
449.516134 568.201758 -1852.343189
446.771197 568.299284 -1854.008488
424.615731 565.611756 -1855.860634
418.959395 562.338028 -1847.703185
413.332536 559.063255 -1839.527940
410.631799 559.159208 -1841.166364
394.587398 556.602016 -1840.469977
391.899908 556.697500 -1842.100412
386.418907 553.417545 -1833.836674
378.400639 553.702426 -1838.701104
328.598662 545.742682 -1836.465441
325.967125 545.836175 -1838.061860
321.099906 542.881866 -1830.584548
316.259245 539.926679 -1823.091251
313.654294 540.019234 -1824.671687
311.049304 540.111785 -1826.252004
286.029883 534.746232 -1820.570441
283.451439 534.837839 -1822.134654
280.873004 534.929451 -1823.698990
276.244439 531.966663 -1816.076892
273.679273 532.057801 -1817.633115
271.114107 532.148940 -1819.189338
243.571308 530.000278 -1825.468784
241.019359 530.090948 -1827.017021
238.467461 530.181613 -1828.565132
234.064364 527.210874 -1820.806232
231.525754 527.301074 -1822.346473
228.987073 527.391270 -1823.886598
224.838286 524.758895 -1817.132396
222.311358 524.848674 -1818.665381
219.784551 524.938450 -1820.198356
215.486062 521.963935 -1812.376024
212.972402 522.053239 -1813.900896
210.458751 522.142548 -1815.425890
206.405863 519.506799 -1808.613569
203.904026 519.595689 -1810.131418
192.416231 517.224087 -1807.829433
189.926207 517.312558 -1809.340138
183.320354 514.420022 -1802.917623
180.843598 514.508019 -1804.420216
178.366842 514.596017 -1805.922809
175.890025 514.684015 -1807.425406
172.015291 512.041931 -1800.504866
169.550296 512.129515 -1802.000441
167.085283 512.217090 -1803.495773
109.510229 505.923438 -1810.611455
107.080603 506.009762 -1812.085479
104.650977 506.096086 -1813.559504
101.141635 503.440989 -1806.417305
98.723822 503.526895 -1807.884186
67.972534 499.407419 -1809.156602
64.662122 496.745289 -1801.893826
62.278162 496.829990 -1803.340129
59.114574 494.510096 -1797.147050
40.982890 489.942257 -1790.763524
38.631387 490.025808 -1792.190212
36.279814 490.109355 -1793.616783
28.569214 487.951045 -1790.182303
26.227998 488.034228 -1791.602698
23.160707 485.363427 -1784.192349
20.831234 485.446188 -1785.605483
18.501771 485.528953 -1787.018738
15.568054 483.200932 -1780.686439
13.248878 483.283329 -1782.093401
10.929814 483.365720 -1783.500231
8.610698 483.448117 -1784.907188
5.728427 481.118232 -1778.543545
3.419599 481.200262 -1779.944208
1.110770 481.282291 -1781.344872
1046.264994 678.284481 -1941.255447
1042.946830 678.402376 -1943.268558
1039.628779 678.520263 -1945.281538
1036.310727 678.638151 -1947.294518
1025.310630 673.842801 -1936.583619
1022.014618 673.959904 -1938.583166
945.101498 661.825482 -1935.409252
935.575051 657.669271 -1926.122194
932.361608 657.783443 -1928.071740
929.148104 657.897617 -1930.021290
874.735506 645.655262 -1915.514654
871.582401 645.767287 -1917.427523
868.429296 645.879313 -1919.340392
819.453835 634.135289 -1903.853349
801.333115 630.284364 -1899.780216
798.256607 630.393668 -1901.646600
707.601796 616.673043 -1899.855622
704.597500 616.779780 -1901.678181
701.593264 616.886517 -1903.500735
693.769462 613.015504 -1894.339793
663.471924 605.794035 -1884.905509
660.520730 605.898891 -1886.695983
609.551554 595.954439 -1878.213069
606.650401 596.057511 -1879.973039
578.446858 589.453149 -1871.586463
575.578102 589.555072 -1873.326823
572.709407 589.656994 -1875.067179
565.941421 586.094276 -1866.424580
563.088924 586.195623 -1868.155131
560.236427 586.296971 -1869.885682
518.995538 580.501557 -1870.567313
516.174004 580.601805 -1872.279098
509.712527 577.028136 -1863.450550
506.907151 577.127805 -1865.152411
466.338342 567.851088 -1853.836842
463.578672 567.949138 -1855.511100
457.716235 564.699936 -1847.478128
454.971298 564.797462 -1849.143427
452.226351 564.894984 -1850.808605
449.481414 564.992510 -1852.473904
421.640549 559.066755 -1846.185113
418.925048 559.163233 -1847.832497
416.209578 559.259711 -1849.479880
410.597639 556.001672 -1841.294974
407.896881 556.097630 -1842.933521
397.240864 553.364484 -1838.967523
394.553404 553.459968 -1840.597956
391.865915 553.555453 -1842.228391
386.385100 550.292694 -1833.963952
383.712344 550.387655 -1835.585429
381.039618 550.482615 -1837.206903
378.366832 550.577575 -1838.828382
344.354276 542.105160 -1827.012013
341.722800 542.198653 -1828.608428
328.565377 542.666128 -1836.590751
325.933840 542.759622 -1838.187171
321.066789 539.820801 -1830.709228
313.621345 536.973659 -1824.795737
311.016354 537.066209 -1826.376053
285.997269 531.731695 -1820.693225
283.418825 531.823303 -1822.257439
280.840390 531.914915 -1823.821774
276.211993 528.967616 -1816.199047
273.646827 529.058754 -1817.755270
271.081661 529.149893 -1819.311493
266.506366 526.200712 -1811.656680
238.435183 527.198055 -1828.686655
234.032253 524.242805 -1820.927124
231.493643 524.333006 -1822.467366
228.954962 524.423202 -1824.007490
224.806325 521.804608 -1817.252727
222.279396 521.894387 -1818.785712
217.967858 518.935859 -1810.970733
215.454268 519.025167 -1812.495722
212.940608 519.114472 -1814.020595
208.875995 516.492924 -1807.214861
203.872381 516.670704 -1810.250556
192.384736 514.312883 -1807.948009
183.289026 511.524338 -1803.035567
180.812270 511.612335 -1804.538160
178.335514 511.700333 -1806.040753
175.858697 511.788331 -1807.543350
171.984112 509.159998 -1800.622250
169.519117 509.247582 -1802.117825
109.479497 503.082850 -1810.727155
107.049871 503.169174 -1812.201179
104.620245 503.255498 -1813.675204
101.111053 500.614214 -1806.532443
98.693240 500.700119 -1807.999323
67.942231 496.606469 -1809.270688
64.631968 493.958121 -1802.007350
62.248008 494.042822 -1803.453653
59.084551 491.734972 -1797.260083
40.953146 487.192989 -1790.875504
38.601644 487.276540 -1792.302192
36.250070 487.360086 -1793.728764
30.880877 485.130636 -1788.873394
28.539601 485.213820 -1790.293793
23.131243 482.639984 -1784.303278
20.801770 482.722744 -1785.716411
18.472306 482.805510 -1787.129666
15.538720 480.489533 -1780.796877
13.219544 480.571930 -1782.203839
10.900480 480.654321 -1783.610669
8.581364 480.736718 -1785.017626
5.699224 478.418907 -1778.653491
3.390395 478.500936 -1780.054154
1.081567 478.582965 -1781.454818
1046.223025 674.405173 -1941.413455
1042.904861 674.523068 -1943.426566
1039.586809 674.640955 -1945.439546
1036.268758 674.758843 -1947.452526
1025.268941 669.989349 -1936.740574
1021.972929 670.106452 -1938.740120
945.060609 658.046061 -1935.563191
941.827926 658.160915 -1937.524365
932.320961 654.026402 -1928.224767
929.107457 654.140575 -1930.174317
893.429061 645.775602 -1919.366951
877.848668 641.856812 -1913.751941
874.695623 641.968836 -1915.664805
871.542518 642.080862 -1917.577675
819.414680 630.516065 -1904.000763
801.294202 626.687581 -1899.926716
798.217694 626.796885 -1901.793100
707.563795 613.160597 -1899.998687
704.559499 613.267334 -1901.821246
701.555264 613.374071 -1903.643800
693.731686 609.523791 -1894.482013
663.434596 602.343667 -1885.046046
660.483402 602.448523 -1886.836520
609.514858 592.562613 -1878.351221
606.613705 592.665685 -1880.111191
578.410573 586.099253 -1871.723070
575.541817 586.201176 -1873.463431
572.673122 586.303098 -1875.203786
565.905340 582.759284 -1866.560417
563.052843 582.860632 -1868.290968
560.200347 582.961979 -1870.021519
557.347850 583.063327 -1871.752070
516.138315 577.302975 -1872.413462
513.316750 577.403224 -1874.125249
506.871667 573.847940 -1865.286003
504.066331 573.947614 -1866.987983
466.303436 564.624643 -1853.968258
463.543765 564.722693 -1855.642516
454.936578 561.588275 -1849.274140
452.191632 561.685796 -1850.939318
421.606201 555.891961 -1846.314425
418.890701 555.988439 -1847.961810
416.175230 556.084917 -1849.609192
410.563477 552.844074 -1841.423586
407.862719 552.940032 -1843.062133
405.161982 553.035986 -1844.700557
402.461245 553.131939 -1846.338980
394.519411 550.317921 -1840.725934
391.831922 550.413405 -1842.356369
386.351294 547.167905 -1834.091228
383.678538 547.262865 -1835.712704
381.005812 547.357825 -1837.334179
378.333026 547.452785 -1838.955658
375.660300 547.547745 -1840.577132
354.596684 541.759708 -1831.334577
351.951960 541.853670 -1832.938980
349.307216 541.947637 -1834.543507
344.320991 539.028545 -1827.137327
341.689515 539.122038 -1828.733742
339.058017 539.215536 -1830.330281
334.124825 536.294621 -1822.891896
331.506627 536.387644 -1824.480320
328.888398 536.480669 -1826.068747
321.033672 536.759737 -1830.833908
310.983405 534.020634 -1826.500102
285.964655 528.717098 -1820.816013
283.386211 528.808706 -1822.380227
280.807776 528.900318 -1823.944562
276.179547 525.968569 -1816.321201
273.614381 526.059707 -1817.877424
271.049215 526.150846 -1819.433647
231.461532 521.364937 -1822.588258
228.922851 521.455133 -1824.128382
224.774363 518.850352 -1817.373057
222.247435 518.940130 -1818.906041
217.936064 515.997092 -1811.090432
215.422474 516.086400 -1812.615421
212.908814 516.175705 -1814.140294
208.844350 513.567938 -1807.333998
194.843274 511.313213 -1806.556001
192.353240 511.401679 -1808.066585
189.863215 511.490151 -1809.577291
187.373191 511.578622 -1811.087996
183.257698 508.628623 -1803.153512
180.780942 508.716620 -1804.656105
174.417947 506.190521 -1799.244301
171.952933 506.278095 -1800.739633
169.487939 506.365680 -1802.235207
109.448765 500.242262 -1810.842854
107.019139 500.328586 -1812.316879
104.589514 500.414910 -1813.790904
101.080470 497.787408 -1806.647581
98.662658 497.873313 -1808.114461
67.911928 493.805519 -1809.384773
64.601814 491.170922 -1802.120875
62.217854 491.255623 -1803.567178
59.054528 488.959877 -1797.373115
40.923402 484.443690 -1790.987486
38.571899 484.527240 -1792.414174
36.220326 484.610787 -1793.840745
30.851264 482.393411 -1788.984883
28.509987 482.476595 -1790.405283
26.168771 482.559778 -1791.825678
23.101779 479.916541 -1784.414206
20.772305 479.999301 -1785.827340
18.442842 480.082066 -1787.240595
16.113439 480.164831 -1788.653845
13.190210 477.860531 -1782.314276
10.871146 477.942922 -1783.721107
8.552030 478.025318 -1785.128064
5.670020 475.719582 -1778.763437
1028.523253 666.018729 -1934.897862
1025.227250 666.135836 -1936.897531
1021.931238 666.252939 -1938.897078
945.019721 654.266701 -1935.717128
941.787037 654.381555 -1937.678302
938.554415 654.496409 -1939.639471
929.066811 650.383595 -1930.327343
896.561160 641.954091 -1917.593526
893.388936 642.066797 -1919.518014
890.216712 642.179503 -1921.442503
887.044488 642.292209 -1923.366991
877.808786 638.170447 -1913.902090
819.375524 626.896841 -1904.148178
816.279897 627.006825 -1906.026180
810.088643 627.226792 -1909.782186
801.255289 623.090737 -1900.073219
798.178781 623.200041 -1901.939603
707.525796 609.648211 -1900.141750
699.667124 605.819860 -1891.000545
696.680543 605.925966 -1892.812327
693.693910 606.032079 -1894.624234
666.348470 598.788448 -1883.396230
663.397267 598.893300 -1885.186583
660.446073 598.998156 -1886.977057
653.223177 595.489485 -1878.609178
650.288242 595.593766 -1880.389842
647.353176 595.698043 -1882.170395
609.478163 589.170787 -1878.489373
606.577010 589.273860 -1880.249343
603.675867 589.376937 -1882.009435
578.374287 582.745297 -1871.859680
575.505531 582.847219 -1873.600041
572.636836 582.949142 -1875.340396
563.016763 579.525640 -1868.426806
560.164266 579.626988 -1870.157356
557.311769 579.728335 -1871.887907
516.102626 574.004206 -1872.547824
513.281061 574.104455 -1874.259611
510.459517 574.204698 -1875.971275
469.028201 561.300147 -1852.425416
466.268530 561.398197 -1854.099674
463.508859 561.496248 -1855.773932
454.901858 558.379026 -1849.404856
452.156911 558.476548 -1851.070034
407.828559 549.782496 -1843.190743
405.127822 549.878449 -1844.829166
402.427085 549.974402 -1846.467590
391.797929 547.271358 -1842.484348
386.317487 544.043115 -1834.218503
383.644731 544.138075 -1835.839980
380.972006 544.233035 -1837.461454
378.299219 544.327996 -1839.082933
354.563231 538.667604 -1831.460521
351.918507 538.761566 -1833.064924
349.273763 538.855533 -1834.669452
344.287706 535.951991 -1827.262638
341.656230 536.045484 -1828.859053
339.024733 536.138982 -1830.455592
328.855281 533.419604 -1826.193427
285.932041 525.702562 -1820.938798
283.353597 525.794170 -1822.503012
280.775162 525.885782 -1824.067347
276.147101 522.969461 -1816.443357
273.581934 523.060599 -1817.999580
271.016768 523.151738 -1819.555803
266.441810 520.233627 -1811.899725
233.266789 521.412310 -1832.026170
224.742401 515.896065 -1817.493387
222.215473 515.985843 -1819.026372
219.688666 516.075620 -1820.559348
215.390680 513.147633 -1812.735120
212.877020 513.236937 -1814.259993
194.811778 508.401978 -1806.674579
192.321744 508.490445 -1808.185163
188.179943 505.556912 -1800.266266
185.703187 505.644910 -1801.768859
183.226370 505.732908 -1803.271457
180.749614 505.820906 -1804.774050
174.386768 503.308588 -1799.361685
171.921754 503.396162 -1800.857016
109.418034 497.401675 -1810.958554
106.988408 497.487999 -1812.432579
104.558782 497.574323 -1813.906604
101.049888 494.960602 -1806.762720
98.632075 495.046507 -1808.229600
67.881625 491.004538 -1809.498860
64.571661 488.383754 -1802.234399
62.187700 488.468455 -1803.680702
59.024504 486.184753 -1797.486149
40.893659 481.694421 -1791.099466
38.542156 481.777972 -1792.526154
36.190582 481.861519 -1793.952725
33.162866 479.573003 -1787.675979
30.821650 479.656186 -1789.096373
28.480374 479.739370 -1790.516773
26.139158 479.822554 -1791.937167
23.072314 477.193098 -1784.525135
20.742841 477.275858 -1785.938268
18.413378 477.358623 -1787.351523
16.083975 477.441388 -1788.764773
13.160876 475.149162 -1782.424713
10.841812 475.231553 -1783.831544
8.522696 475.313949 -1785.238500
1028.481564 662.165277 -1935.054817
1025.185561 662.282384 -1937.054486
944.978832 650.487280 -1935.871068
941.746149 650.602134 -1937.832242
938.513526 650.716988 -1939.793411
929.026165 646.626554 -1930.480371
899.693259 638.132580 -1915.820101
896.521035 638.245286 -1917.744589
893.348811 638.357992 -1919.669077
890.176587 638.470698 -1921.593566
880.921948 634.372058 -1912.139374
877.768904 634.484083 -1914.052239
819.336369 623.277678 -1904.295590
816.240742 623.387662 -1906.173592
813.145115 623.497646 -1908.051595
810.049489 623.607629 -1909.929598
801.216376 619.493954 -1900.219720
798.139868 619.603258 -1902.086103
710.492022 606.029085 -1898.462137
707.487796 606.135826 -1900.284813
699.629348 602.328086 -1891.142769
696.642766 602.434193 -1892.954550
693.656133 602.540305 -1894.766457
669.262335 595.233164 -1881.746295
666.311141 595.338020 -1883.536769
663.359937 595.442871 -1885.327122
660.408743 595.547727 -1887.117596
653.186053 592.058022 -1878.748944
650.251118 592.162302 -1880.529609
647.316052 592.266580 -1882.310162
609.441467 585.778962 -1878.627526
606.540315 585.882034 -1880.387496
603.639171 585.985111 -1882.147587
578.338002 579.391401 -1871.996288
575.469246 579.493324 -1873.736648
572.600551 579.595246 -1875.477004
562.980683 576.190710 -1868.562641
560.128186 576.292057 -1870.293191
557.275690 576.393405 -1872.023742
513.245372 570.805625 -1874.393976
510.423828 570.905869 -1876.105639
468.993294 558.073702 -1852.556832
466.233624 558.171752 -1854.231090
463.473953 558.269803 -1855.905348
454.867138 555.169778 -1849.535572
452.122191 555.267299 -1851.200750
407.794398 546.624959 -1843.319352
391.763936 544.129311 -1842.612327
389.076446 544.224795 -1844.242762
386.388957 544.320280 -1845.873197
380.938198 541.108184 -1837.588732
378.265412 541.203145 -1839.210211
351.885055 535.669462 -1833.190869
349.240310 535.763429 -1834.795396
344.254421 532.875438 -1827.387949
341.622945 532.968931 -1828.984364
338.991448 533.062429 -1830.580903
328.822164 530.358539 -1826.318107
285.899427 522.687965 -1821.061585
283.320983 522.779573 -1822.625799
280.742548 522.871185 -1824.190134
276.114655 519.970414 -1816.565511
273.549488 520.061553 -1818.121734
270.984322 520.152691 -1819.677957
266.409531 517.250069 -1812.021248
231.397311 515.428830 -1822.830041
228.858630 515.519027 -1824.370166
226.319949 515.609223 -1825.910290
222.183511 513.031587 -1819.146702
219.656705 513.121364 -1820.679678
215.358886 510.208866 -1812.854819
212.845226 510.298170 -1814.379691
194.780282 505.490775 -1806.793155
192.290248 505.579241 -1808.303739
188.148615 502.661228 -1800.384210
185.671859 502.749226 -1801.886803
183.195042 502.837224 -1803.389401
180.718286 502.925222 -1804.891994
176.820593 500.339075 -1797.983615
174.355589 500.426655 -1799.479069
171.890575 500.514230 -1800.974400
169.425581 500.601814 -1802.469975
111.816998 494.474767 -1809.600346
109.387302 494.561087 -1811.074254
106.957676 494.647411 -1812.548279
104.528050 494.733735 -1814.022303
102.098415 494.820054 -1815.496206
98.601492 492.219701 -1808.344738
96.183670 492.305601 -1809.811497
64.541507 485.596585 -1802.347923
62.157546 485.681286 -1803.794226
58.994481 483.409628 -1797.599182
40.863915 478.945122 -1791.211448
38.512412 479.028673 -1792.638136
36.160838 479.112219 -1794.064707
33.133253 476.835778 -1787.787468
30.792037 476.918962 -1789.207863
28.450760 477.002146 -1790.628262
26.109544 477.085329 -1792.048657
23.768319 477.168507 -1793.468930
21.427104 477.251690 -1794.889325
19.085827 477.334874 -1796.309724
16.054510 474.717944 -1788.875702
13.131542 472.437762 -1782.535151
10.812478 472.520153 -1783.941981
8.493362 472.602550 -1785.348938
3.855080 472.767349 -1788.162978
1.535955 472.849741 -1789.569813
1031.735825 658.194662 -1933.212232
1028.439873 658.311764 -1935.211774
944.937944 646.707859 -1936.025007
941.705260 646.822713 -1937.986181
938.472637 646.937566 -1939.947350
899.653135 634.423836 -1915.971161
896.480911 634.536542 -1917.895650
893.308687 634.649248 -1919.820138
884.035171 630.573608 -1910.376657
880.882065 630.685633 -1912.289526
819.297214 619.658454 -1904.443004
816.201587 619.768438 -1906.321007
813.105960 619.878422 -1908.199010
810.010333 619.988405 -1910.077012
801.177463 615.897171 -1900.366220
798.100955 616.006475 -1902.232604
795.024518 616.115783 -1904.099105
774.469969 612.779801 -1902.658656
710.454022 602.516700 -1898.605200
702.578144 598.730262 -1889.473087
699.591572 598.836373 -1891.284989
696.604990 598.942480 -1893.096771
693.618357 599.048593 -1894.908678
663.322609 591.992504 -1885.467659
660.371415 592.097360 -1887.258133
653.148929 588.626619 -1878.888709
650.213994 588.730900 -1880.669373
647.278929 588.835178 -1882.449926
639.737441 585.036853 -1873.114799
636.820089 585.140500 -1874.884574
609.404772 582.387197 -1878.765675
606.503620 582.490269 -1880.525646
581.170412 575.935522 -1870.392542
578.301716 576.037444 -1872.132897
575.432960 576.139367 -1873.873258
562.944602 572.855718 -1868.698478
560.092106 572.957066 -1870.429029
557.239609 573.058414 -1872.159580
513.209683 567.506857 -1874.528338
510.388139 567.607100 -1876.240001
500.681049 560.836085 -1857.786098
468.958388 554.847196 -1852.688251
466.198717 554.945246 -1854.362509
463.439046 555.043296 -1856.036767
454.832418 551.960590 -1849.666285
452.087472 552.058111 -1851.331463
443.554511 548.972723 -1844.916191
440.824307 549.069725 -1846.572531
438.094103 549.166726 -1848.228872
391.729943 540.987324 -1842.740303
389.042454 541.082809 -1844.370738
386.354964 541.178293 -1846.001173
380.904392 537.983394 -1837.716008
378.231606 538.078355 -1839.337487
375.558880 538.173315 -1840.958961
351.851602 532.577419 -1833.316811
349.206858 532.671386 -1834.921338
344.221136 529.798823 -1827.513262
341.589660 529.892316 -1829.109677
336.643702 527.018342 -1821.677512
334.025473 527.111366 -1823.265939
331.407275 527.204389 -1824.854363
285.866813 519.673399 -1821.184371
283.288369 519.765006 -1822.748585
280.709934 519.856618 -1824.312920
276.082208 516.971367 -1816.687665
273.517042 517.062506 -1818.243888
270.951876 517.153644 -1819.800111
266.377253 514.266511 -1812.142771
231.365200 512.460762 -1822.950933
228.826519 512.550958 -1824.491058
224.678478 509.987522 -1817.734048
222.151550 510.077300 -1819.267033
219.624743 510.167077 -1820.800009
215.327092 507.270099 -1812.974518
212.813432 507.359403 -1814.499390
208.749416 504.792951 -1807.691412
203.745801 504.970731 -1810.727107
194.748787 502.579571 -1806.911731
192.258753 502.668038 -1808.422315
189.768728 502.756509 -1809.933020
187.278703 502.844981 -1811.443725
183.163714 499.941510 -1803.507346
180.686958 500.029507 -1805.009939
176.789414 497.457173 -1798.100998
174.324410 497.544752 -1799.596451
171.859397 497.632327 -1801.091783
169.394402 497.719912 -1802.587358
164.464445 497.895065 -1805.578138
111.786267 491.634210 -1809.716045
109.356571 491.720530 -1811.189953
105.824419 489.135183 -1804.059353
103.406606 489.221089 -1805.526233
100.988723 489.306990 -1806.992997
98.570910 489.392895 -1808.459877
64.511353 482.809387 -1802.461449
62.127392 482.894087 -1803.907751
58.964457 480.634504 -1797.712216
56.590784 480.718837 -1799.152225
38.482668 476.279404 -1792.750116
36.131095 476.362951 -1794.176687
33.779531 476.446502 -1795.603380
29.076506 476.613594 -1798.456513
23.738706 474.431252 -1793.580421
21.397490 474.514435 -1795.000816
19.056213 474.597619 -1796.421215
16.025046 471.994501 -1788.986630
13.695573 472.077262 -1790.399763
11.366170 472.160026 -1791.813014
1031.694135 654.341210 -1933.369187
944.897055 642.928438 -1936.178947
941.664371 643.043292 -1938.140120
938.431748 643.158145 -1940.101289
919.016637 634.745457 -1920.580123
899.613011 630.715031 -1916.122225
896.440787 630.827737 -1918.046713
893.268563 630.940443 -1919.971201
883.995289 626.887244 -1910.526806
880.842183 626.999269 -1912.439675
819.258058 616.039230 -1904.590418
816.162431 616.149214 -1906.468421
813.066804 616.259198 -1908.346424
801.138550 612.300327 -1900.512723
774.431280 609.203691 -1902.804314
771.372496 609.312369 -1904.660042
762.749015 605.236019 -1894.821354
759.709411 605.344016 -1896.665458
716.424544 598.790775 -1895.103031
713.420318 598.897516 -1896.925707
710.416022 599.004253 -1898.748266
699.553796 595.344661 -1891.427210
696.567214 595.450767 -1893.238991
663.285280 588.542136 -1885.608195
660.334086 588.646992 -1887.398670
653.111805 585.195156 -1879.028476
650.176870 585.299437 -1880.809140
647.241804 585.403714 -1882.589693
639.700540 581.626062 -1873.253724
609.368077 578.995371 -1878.903828
606.466924 579.098444 -1880.663798
596.636803 575.739267 -1873.875852
593.751909 575.841764 -1875.626012
590.867025 575.944266 -1877.376294
584.002822 572.479705 -1868.788793
581.134126 572.581627 -1870.529149
578.265431 572.683549 -1872.269505
565.761019 569.419380 -1867.103765
513.173994 564.208027 -1874.662702
500.645751 557.573417 -1857.918990
468.923481 551.620750 -1852.819667
466.163811 551.718801 -1854.493925
454.797698 548.751342 -1849.797001
452.052752 548.848863 -1851.462179
449.307814 548.946389 -1853.127478
443.519977 545.780732 -1845.046203
440.789773 545.877734 -1846.702544
438.059570 545.974736 -1848.358885
389.008460 537.940761 -1844.498717
386.320971 538.036246 -1846.129152
383.633482 538.131730 -1847.759587
378.197799 534.953565 -1839.464763
375.525074 535.048525 -1841.086237
351.818150 529.485315 -1833.442755
349.173405 529.579282 -1835.047282
344.187852 526.722269 -1827.638573
339.228844 523.864252 -1820.213763
336.610585 523.957277 -1821.802192
285.834199 516.658832 -1821.307158
283.255755 516.750439 -1822.871371
280.677320 516.842052 -1824.435707
276.049762 513.972290 -1816.809820
273.484596 514.063428 -1818.366043
270.919430 514.154567 -1819.922266
268.354263 514.245705 -1821.478489
231.333089 509.492724 -1823.071824
228.794408 509.582920 -1824.611949
224.646516 507.033235 -1817.854379
222.119588 507.123013 -1819.387364
219.592781 507.212790 -1820.920339
215.295298 504.331332 -1813.094216
212.781638 504.420636 -1814.619089
210.267988 504.509945 -1816.144083
206.215994 501.956855 -1809.328394
196.208625 502.312407 -1815.399550
192.227257 499.756834 -1808.540891
189.737232 499.845305 -1810.051596
187.247208 499.933777 -1811.562302
183.132386 497.045795 -1803.625291
180.655630 497.133793 -1805.127884
178.178874 497.221790 -1806.630478
175.702057 497.309789 -1808.133075
171.828218 494.750394 -1801.209167
169.363223 494.837979 -1802.704742
166.898210 494.925554 -1804.200073
164.433266 495.013132 -1805.695522
111.755535 488.793622 -1809.831745
109.325839 488.879942 -1811.305653
90.384074 484.495963 -1805.408400
87.976548 484.581500 -1806.868987
66.865159 479.937517 -1801.128670
64.481199 480.022218 -1802.574973
61.308046 477.775047 -1796.385245
58.934434 477.859379 -1797.825249
56.560760 477.943712 -1799.265258
38.452924 473.530105 -1792.862098
36.101351 473.613652 -1794.288669
33.749787 473.697203 -1795.715362
19.026600 471.860394 -1796.532705
15.995582 469.271058 -1789.097559
13.072874 467.014994 -1782.756025
10.753810 467.097385 -1784.162856
1031.652445 650.487758 -1933.526142
941.623483 639.263932 -1938.294057
938.390860 639.378785 -1940.255226
918.976252 631.012564 -1920.732167
915.783393 631.126006 -1922.669247
912.590524 631.239443 -1924.606205
909.397665 631.352885 -1926.543285
899.572887 627.006287 -1916.273285
896.400662 627.118993 -1918.197774
893.228438 627.231698 -1920.122262
883.955407 623.200879 -1910.676955
880.802301 623.312905 -1912.589824
877.649257 623.424930 -1914.502689
819.218903 612.420067 -1904.737830
816.123276 612.530051 -1906.615833
771.333806 605.736197 -1904.805703
762.710568 601.682289 -1894.966101
759.670964 601.790285 -1896.810205
756.631350 601.898278 -1898.654188
716.386544 595.278389 -1895.246094
713.382318 595.385131 -1897.068770
663.247951 585.091769 -1885.748732
660.296757 585.196625 -1887.539207
653.074681 581.763693 -1879.168242
650.139746 581.867973 -1880.948907
642.580982 578.111681 -1871.622750
639.663640 578.215332 -1873.392646
606.430229 575.706618 -1880.801950
603.529086 575.809695 -1882.562042
596.600312 572.366407 -1874.013231
593.715419 572.468904 -1875.763392
590.830535 572.571405 -1877.513674
583.966537 569.125809 -1868.925401
581.097841 569.227731 -1870.665757
578.229146 569.329653 -1872.406112
509.499623 557.349070 -1864.252097
503.401086 554.211661 -1856.358855
500.610453 554.310810 -1858.051879
454.762979 545.542154 -1849.927714
452.018032 545.639675 -1851.592892
449.273095 545.737202 -1853.258191
446.528157 545.834728 -1854.923491
440.755240 542.685743 -1846.832557
438.025036 542.782745 -1848.488898
435.294811 542.879752 -1850.145363
429.580868 539.728735 -1842.018711
391.661957 534.703229 -1842.996260
388.974467 534.798714 -1844.626695
386.286978 534.894198 -1846.257130
383.599488 534.989683 -1847.887566
378.163992 531.828714 -1839.592041
375.491266 531.923674 -1841.213515
372.818541 532.018634 -1842.834990
351.784697 526.393211 -1833.568699
349.139952 526.487178 -1835.173227
344.154566 523.645654 -1827.763886
339.195727 520.803188 -1820.338443
336.577468 520.896212 -1821.926872
321.238580 518.422550 -1820.798962
285.801585 513.644265 -1821.429944
283.223141 513.735873 -1822.994157
280.644706 513.827485 -1824.558493
276.017316 510.973243 -1816.931974
273.452150 511.064381 -1818.488197
270.886984 511.155520 -1820.044420
268.321817 511.246658 -1821.600643
228.762298 506.614851 -1824.732841
226.223617 506.705048 -1826.272966
223.684936 506.795244 -1827.813091
219.560819 504.258534 -1821.040669
215.263505 501.392564 -1813.213915
212.749845 501.481869 -1814.738788
210.236194 501.571178 -1816.263782
206.184349 499.031870 -1809.447532
203.682512 499.120760 -1810.965382
192.195761 496.845630 -1808.659467
189.705736 496.934102 -1810.170172
187.215712 497.022573 -1811.680878
183.101058 494.150081 -1803.743237
180.624302 494.238078 -1805.245830
178.147546 494.326076 -1806.748423
175.670729 494.414074 -1808.251020
173.193973 494.502072 -1809.753613
169.332044 491.956046 -1802.822126
166.867031 492.043621 -1804.317457
164.402087 492.131199 -1805.812906
128.695588 490.716579 -1818.200514
122.616230 488.249304 -1812.614242
120.174791 488.336047 -1814.095411
117.733413 488.422789 -1815.576575
114.154368 485.866711 -1808.473425
111.724803 485.953034 -1809.947445
90.353622 481.681231 -1805.523047
87.946096 481.766769 -1806.983633
85.538509 481.852307 -1808.444225
66.835005 477.150319 -1801.242195
64.451045 477.235019 -1802.688498
61.278023 474.999922 -1796.498278
58.904410 475.084254 -1797.938283
56.530737 475.168588 -1799.378292
54.157063 475.252921 -1800.818301
36.071607 470.864383 -1794.400649
21.962378 471.365676 -1802.960428
18.996986 469.123169 -1796.644195
15.966117 466.547615 -1789.208487
13.043541 464.303625 -1782.866462
1031.610755 646.634245 -1933.683099
941.582594 635.484511 -1938.447997
938.349972 635.599364 -1940.409166
935.117349 635.714217 -1942.370335
918.935867 627.279672 -1920.884211
915.743007 627.393114 -1922.821291
912.550139 627.506551 -1924.758249
909.357280 627.619993 -1926.695329
899.532762 623.297482 -1916.424348
896.360538 623.410187 -1918.348837
893.188314 623.522893 -1920.273325
883.915525 619.514515 -1910.827104
880.762420 619.626541 -1912.739973
877.609375 619.738566 -1914.652838
819.179747 608.800843 -1904.885245
816.084121 608.910827 -1906.763248
771.295117 602.160087 -1904.951361
762.672121 598.128558 -1895.110848
759.632517 598.236555 -1896.954952
756.592903 598.344547 -1898.798934
722.357076 591.552530 -1891.744044
719.352841 591.659267 -1893.566598
