# .PCD v.7 - Point Cloud Data file format
VERSION .7
FIELDS x y z
SIZE 4 4 4
TYPE F F F
COUNT 1 1 1
WIDTH 1293
HEIGHT 1
POINTS 1293
DATA ascii
1178.890498 -599.318113 -1712.264268
1175.814060 -599.208806 -1714.130769
1172.737613 -599.099503 -1715.997148
1170.150309 -605.162279 -1748.216940
1167.035502 -605.051615 -1750.106566
1171.818264 -608.298921 -1762.530120
1168.684399 -608.187577 -1764.431361
1173.409613 -611.432785 -1776.889662
1170.256447 -611.320758 -1778.802536
1167.103403 -611.208733 -1780.715401
1337.221379 -484.312959 -1002.119978
1334.912560 -484.230925 -1003.520763
1327.498470 -485.636607 -1016.271098
1331.607919 -487.451714 -1022.030338
1329.278507 -487.368954 -1023.443466
1334.272395 -489.453913 -1029.845079
1331.931170 -489.370734 -1031.265352
1329.589954 -489.287551 -1032.685746
1333.625736 -491.100037 -1038.489779
1331.274111 -491.016484 -1039.916477
1328.922598 -490.932938 -1041.343043
1326.570964 -490.849391 -1042.769619
1330.555301 -492.660043 -1048.604998
1329.810925 -498.117789 -1076.171417
1327.415212 -498.032671 -1077.624859
1325.019499 -497.947552 -1079.078302
1329.723126 -500.022231 -1085.655936
1333.517304 -501.826132 -1091.606570
1331.099369 -501.740225 -1093.073459
1342.809611 -505.971371 -1104.831691
1354.472610 -510.200807 -1116.618621
1359.048073 -512.270930 -1123.274096
1356.571429 -512.182939 -1124.776558
1354.094561 -512.094934 -1126.279282
1186.039692 -574.795615 -1567.759660
1183.138540 -574.692543 -1569.519630
1192.494408 -580.509129 -1590.958842
1189.559464 -580.404854 -1592.739385
1185.695241 -588.613034 -1636.345459
1182.708730 -588.506923 -1638.157358
1179.722087 -588.400816 -1639.969143
1175.401464 -591.108645 -1656.737337
1180.005188 -594.133488 -1668.091370
1176.983238 -594.026121 -1669.924701
1173.961288 -593.918754 -1671.758033
1170.939337 -593.811386 -1673.591364
1175.454763 -596.833156 -1684.998898
1172.415150 -596.725164 -1686.842881
1177.502542 -600.005683 -1699.082377
1174.443748 -599.897010 -1700.937983
1178.851585 -602.914896 -1712.410769
1175.775147 -602.805589 -1714.277270
1172.698700 -602.696286 -1716.143649
1170.110911 -608.803883 -1748.365266
1166.996104 -608.693219 -1750.254892
1171.778624 -611.962905 -1762.679358
1168.644760 -611.851561 -1764.580599
1173.369731 -615.119210 -1777.039814
1170.216565 -615.007183 -1778.952688
1167.063520 -614.895158 -1780.865553
1327.469136 -488.348006 -1016.381536
1331.578455 -490.175157 -1022.141266
1329.249043 -490.092397 -1023.554395
1326.919518 -490.009631 -1024.967654
1331.901556 -492.107959 -1031.376842
1329.560340 -492.024776 -1032.797236
1333.595991 -493.849336 -1038.601761
1331.244367 -493.765783 -1040.028458
1328.892854 -493.682237 -1041.455025
1326.541220 -493.598690 -1042.881601
1330.525426 -495.421385 -1048.717470
1335.392386 -497.515658 -1055.196401
1329.780621 -500.918770 -1076.285504
1327.384909 -500.833651 -1077.738946
1324.989196 -500.748532 -1079.192388
1329.692674 -502.836963 -1085.770582
1333.486721 -504.652938 -1091.721708
1331.068786 -504.567031 -1093.188598
1335.714725 -506.653419 -1099.801663
1347.389473 -510.910875 -1111.582432
1351.976488 -512.995161 -1118.231453
1349.511545 -512.907583 -1119.726902
1347.046602 -512.820004 -1121.222351
1186.002997 -578.187441 -1567.897812
1183.101844 -578.084369 -1569.657782
1192.457284 -583.940532 -1591.098606
1180.894807 -589.053574 -1625.229414
1185.657464 -592.104808 -1636.487683
1182.670953 -591.998697 -1638.299581
1179.684311 -591.892589 -1640.111367
1176.945014 -597.559239 -1670.068609
1173.923063 -597.451872 -1671.901940
1170.901113 -597.344505 -1673.735271
1175.416316 -600.386886 -1685.143645
1180.522636 -603.690471 -1697.372308
1177.463852 -603.581793 -1699.228035
1181.889119 -606.621043 -1710.690893
1178.812672 -606.511740 -1712.557272
1175.736234 -606.402433 -1714.423772
1172.659787 -606.293130 -1716.290152
1173.186311 -612.556157 -1746.623843
1170.071513 -612.445487 -1748.513592
1166.956707 -612.334823 -1750.403218
1171.738984 -615.626889 -1762.828595
1168.605120 -615.515545 -1764.729836
1173.329849 -618.805574 -1777.189963
1170.176683 -618.693547 -1779.102837
1167.023638 -618.581522 -1781.015702
1163.870594 -618.469497 -1782.928566
1329.758918 -491.141772 -1015.085015
1333.878384 -492.981369 -1020.838823
1331.548990 -492.898600 -1022.252194
1329.219578 -492.815840 -1023.665323
1326.890054 -492.733074 -1025.078583
1331.871943 -494.845184 -1031.488331
1329.530727 -494.762001 -1032.908726
1330.495552 -498.182728 -1048.829942
1328.133631 -498.098813 -1050.262811
1329.750318 -503.719720 -1076.399589
1327.354606 -503.634601 -1077.853031
1324.958893 -503.549483 -1079.306474
1329.662222 -505.651695 -1085.885229
1333.456139 -507.479713 -1091.836845
1331.038204 -507.393806 -1093.303735
1335.683994 -509.494006 -1099.917363
1347.358444 -513.778996 -1111.699253
1351.945309 -515.877094 -1118.348837
1349.480366 -515.789515 -1119.844286
1347.015423 -515.701937 -1121.339734
1185.966302 -581.579267 -1568.035965
1183.065149 -581.476194 -1569.795935
1192.420160 -587.371995 -1591.238373
1189.485216 -587.267719 -1593.018916
1186.550150 -587.163442 -1594.799468
1183.826234 -592.630097 -1623.569658
1180.857255 -592.524614 -1625.370793
1185.619688 -595.596520 -1636.629903
1182.633177 -595.490409 -1638.441802
1179.646535 -595.384302 -1640.253588
1176.906790 -601.092297 -1670.212513
1173.884840 -600.984930 -1672.045845
1170.862890 -600.877563 -1673.879176
1175.377869 -603.940617 -1685.288392
1180.483946 -607.266642 -1697.517968
1184.926653 -610.327129 -1708.971014
1181.850206 -610.217826 -1710.837393
1178.773759 -610.108523 -1712.703772
1175.697321 -609.999215 -1714.570273
1172.620874 -609.889913 -1716.436652
1177.575162 -613.210483 -1728.758355
1170.032116 -616.087091 -1748.661918
1166.917309 -615.976427 -1750.551544
1171.699344 -619.290873 -1762.977833
1168.565480 -619.179529 -1764.879074
1165.431494 -619.068184 -1766.780324
1170.136801 -622.379911 -1779.252986
1166.983756 -622.267886 -1781.165851
1163.830712 -622.155861 -1783.078715
1337.133769 -492.410934 -1002.449817
1334.824950 -492.328900 -1003.850602
1334.367937 -494.017966 -1012.381530
1332.048821 -493.935570 -1013.788487
1329.729584 -493.853171 -1015.195453
1333.848920 -495.704812 -1020.949751
1331.519526 -495.622043 -1022.363123
1329.190114 -495.539284 -1023.776252
1334.183554 -497.665587 -1030.179548
1331.842329 -497.582409 -1031.599821
1329.501113 -497.499226 -1033.020216
1335.332339 -503.065908 -1055.422468
1332.958726 -502.981575 -1056.862472
1329.720016 -506.520670 -1076.513674
1327.324303 -506.435551 -1077.967117
1324.928590 -506.350433 -1079.420559
1329.631770 -508.466457 -1085.999877
1333.425556 -510.306519 -1091.951984
1331.007621 -510.220612 -1093.418873
1342.716969 -514.534449 -1105.180473
1347.327414 -516.647147 -1111.816076
1344.874162 -516.559986 -1113.304389
1349.449187 -518.671448 -1119.961670
1346.984244 -518.583870 -1121.457118
1185.929606 -584.971092 -1568.174117
1183.028453 -584.868020 -1569.934087
1192.383036 -590.803459 -1591.378139
1189.448092 -590.699183 -1593.158682
1186.513026 -590.594905 -1594.939235
1183.788681 -596.101198 -1623.711040
1180.819702 -595.995715 -1625.512174
1185.581912 -599.088233 -1636.772124
1182.595401 -598.982122 -1638.584022
1179.608758 -598.876014 -1640.395808
1176.868567 -604.625355 -1670.356418
1173.846617 -604.517988 -1672.189750
1178.379026 -607.602405 -1683.589037
1175.339422 -607.494408 -1685.433141
1172.299808 -607.386416 -1687.277124
1177.386473 -610.734075 -1699.519355
1181.811293 -613.814670 -1710.983896
1178.734845 -613.705367 -1712.850275
1175.658408 -613.596059 -1714.716776
1172.581960 -613.486757 -1716.583155
1177.536006 -616.829707 -1728.905770
1174.440379 -616.719723 -1730.783773
1171.344752 -616.609739 -1732.661775
1168.249125 -616.499755 -1734.539778
1169.992718 -619.728695 -1748.810244
1166.877911 -619.618031 -1750.699870
1171.659705 -622.954857 -1763.127070
1168.525840 -622.843513 -1765.028311
1165.391854 -622.732168 -1766.929562
1170.096919 -626.066275 -1779.403135
1166.943874 -625.954250 -1781.316000
1163.790830 -625.842225 -1783.228865
1346.339758 -495.438374 -996.957119
1337.104566 -495.110259 -1002.559763
1334.795747 -495.028225 -1003.960548
1332.486797 -494.946195 -1005.361220
1330.178090 -494.864167 -1006.761874
1334.338603 -496.729335 -1012.491967
1332.019487 -496.646939 -1013.898924
1329.700250 -496.564540 -1015.305890
1333.819455 -498.428255 -1021.060679
1331.490062 -498.345486 -1022.474051
1329.160650 -498.262727 -1023.887180
1334.153941 -500.402843 -1030.291039
1331.812715 -500.319664 -1031.711312
1329.471500 -500.236481 -1033.131707
1335.302315 -505.841032 -1055.535501
1332.928703 -505.756700 -1056.975506
1336.859303 -507.613700 -1062.845064
1334.475281 -507.528998 -1064.291372
1332.091372 -507.444303 -1065.737548
1329.707472 -507.359603 -1067.183846
1329.689712 -509.321651 -1076.627761
1327.294000 -509.236532 -1078.081203
1324.898287 -509.151413 -1079.534646
1329.601318 -511.281189 -1086.114524
1333.394973 -513.133325 -1092.067122
1345.127527 -517.475561 -1103.815565
1342.686088 -517.388818 -1105.296735
1344.843132 -519.428137 -1113.421212
1342.389880 -519.340975 -1114.909525
1346.953065 -521.465772 -1121.574501
1344.488000 -521.378192 -1123.069959
1180.090615 -588.156708 -1571.832329
1192.345912 -594.234861 -1591.517904
1189.410968 -594.130585 -1593.298447
1186.475902 -594.026308 -1595.078999
1183.751128 -599.572238 -1623.852418
1180.782149 -599.466755 -1625.653553
1185.544136 -602.579945 -1636.914345
1182.557625 -602.473835 -1638.726243
1179.570982 -602.367727 -1640.538029
1179.852294 -608.265780 -1668.666992
1176.830344 -608.158413 -1670.500323
1173.808393 -608.051046 -1672.333654
1178.340579 -611.156135 -1683.733784
1175.300974 -611.048138 -1685.577888
1172.261361 -610.940146 -1687.421871
1177.347784 -614.310246 -1699.665016
1174.288990 -614.201573 -1701.520622
1171.230206 -614.092895 -1703.376350
1175.619495 -617.192842 -1714.863276
1172.543048 -617.083540 -1716.729655
1169.466600 -616.974237 -1718.596034
1174.401223 -620.338947 -1730.931187
1171.305597 -620.228963 -1732.809190
1168.209970 -620.118979 -1734.687193
1173.068118 -623.480908 -1747.068819
1169.953321 -623.370238 -1748.958567
1166.838514 -623.259574 -1750.848194
1163.723829 -623.148911 -1752.737811
1168.486200 -626.507497 -1765.177549
1165.352214 -626.396152 -1767.078799
1162.218349 -626.284808 -1768.980040
1166.903992 -629.640675 -1781.466152
1163.750947 -629.528650 -1783.379016
1346.310554 -498.137730 -997.067066
1344.001847 -498.055702 -998.467720
1330.148886 -497.563523 -1006.871822
1334.309269 -499.440735 -1012.602405
1331.990153 -499.358338 -1014.009362
1329.670916 -499.275940 -1015.416328
1333.789991 -501.151699 -1021.171608
1331.460597 -501.068929 -1022.584980
1336.465543 -503.223251 -1028.982134
1334.124327 -503.140068 -1030.402529
1331.783102 -503.056889 -1031.822802
1329.441886 -502.973706 -1033.243197
1335.272292 -508.616157 -1055.648535
1332.898679 -508.531824 -1057.088539
1330.525076 -508.447487 -1058.528665
1334.445128 -510.316167 -1064.404896
1332.061218 -510.231471 -1065.851072
1332.055122 -512.207720 -1075.288404
1329.659410 -512.122601 -1076.741846
1327.263697 -512.037482 -1078.195289
1331.978270 -514.181487 -1084.768594
1335.782082 -516.046035 -1090.715390
1340.451172 -518.188389 -1097.316402
1345.096646 -520.329900 -1103.931825
1342.655207 -520.243157 -1105.412994
1333.162295 -517.929417 -1101.738476
1330.732669 -517.843093 -1103.212501
1335.330881 -519.982934 -1109.856380
1346.921886 -524.347705 -1121.691885
1344.456821 -524.260124 -1123.187343
1180.053920 -591.548534 -1571.970481
1189.373844 -597.562049 -1593.438214
1186.438778 -597.457771 -1595.218766
1190.703627 -600.326951 -1605.602584
1181.850036 -600.012387 -1610.973885
1186.682433 -603.148759 -1622.192672
1183.713576 -603.043278 -1623.993797
1180.744597 -602.937796 -1625.794932
1185.506359 -606.071719 -1637.056568
1182.836020 -611.906266 -1666.977567
1179.814070 -611.798899 -1668.810899
1176.792119 -611.691532 -1670.644230
1178.302132 -614.709866 -1683.878531
1175.262527 -614.601869 -1685.722635
1172.222914 -614.493877 -1687.566618
1169.183310 -614.385880 -1689.410722
1174.250301 -617.777683 -1701.666280
1171.191517 -617.669006 -1703.522008
1168.132733 -617.560328 -1705.377736
1172.504135 -620.680323 -1716.876156
1169.427688 -620.571020 -1718.742535
1174.362069 -623.958110 -1731.078599
1171.266442 -623.848126 -1732.956602
1176.143405 -627.233175 -1745.327528
1173.028720 -627.122512 -1747.217145
1169.913923 -627.011842 -1749.106893
1166.799116 -626.901178 -1750.996520
1163.684432 -626.790515 -1752.886137
1168.446560 -630.171481 -1765.326787
1165.312574 -630.060136 -1767.228037
1170.017154 -633.439064 -1779.703436
1166.864110 -633.327039 -1781.616301
1346.281350 -500.837055 -997.177012
1343.972644 -500.755027 -998.577666
1330.119683 -500.262848 -1006.981768
1327.810864 -500.180814 -1008.382553
1331.960820 -502.069707 -1014.119798
1329.641582 -501.987309 -1015.526764
1333.760526 -503.875142 -1021.282536
1331.431133 -503.792373 -1022.695908
1336.435929 -505.960476 -1029.093624
1334.094714 -505.877293 -1030.514019
1331.753488 -505.794114 -1031.934292
1329.412273 -505.710931 -1033.354686
1335.242268 -511.391281 -1055.761568
1332.868656 -511.306949 -1057.201573
1330.495053 -511.222612 -1058.641699
1334.414974 -513.103335 -1064.518420
1332.031065 -513.018640 -1065.964596
1329.647165 -512.933940 -1067.410894
1332.024819 -515.008700 -1075.402490
1329.629106 -514.923581 -1076.855933
1327.233394 -514.838463 -1078.309375
1331.947818 -516.996219 -1084.883241
1335.751499 -518.872841 -1090.830528
1340.420441 -521.028976 -1097.432102
1337.990815 -520.942652 -1098.906127
1335.561067 -520.856327 -1100.380161
1333.131563 -520.770004 -1101.854176
1330.701937 -520.683680 -1103.328201
1328.272180 -520.597359 -1104.802113
1346.890707 -527.229638 -1121.809269
1344.425642 -527.142057 -1123.304727
1189.336720 -600.993451 -1593.577978
1186.401654 -600.889174 -1595.358530
1190.666298 -603.777318 -1605.743121
1187.715095 -603.672467 -1607.533474
1184.763901 -603.567611 -1609.323948
1181.812707 -603.462755 -1611.114422
1186.644881 -606.619799 -1622.334050
1183.676023 -606.514318 -1624.135176
1188.455216 -609.669544 -1635.386882
1182.797797 -615.439324 -1667.121472
1179.775846 -615.331957 -1668.954804
1184.342902 -618.479585 -1680.335191
1181.303289 -618.371593 -1682.179173
1175.224080 -618.155599 -1685.867382
1177.270405 -621.462467 -1699.956332
1174.211612 -621.353794 -1701.811939
1171.152828 -621.245116 -1703.667667
1175.541668 -624.386469 -1715.156279
1172.465221 -624.277166 -1717.022658
1169.388774 -624.167864 -1718.889038
1174.322913 -627.577334 -1731.226013
1171.227286 -627.467350 -1733.104016
1168.131659 -627.357366 -1734.982019
1172.989323 -630.764116 -1747.365471
1169.874525 -630.653446 -1749.255219
1166.759719 -630.542782 -1751.144846
1163.645034 -630.432119 -1753.034463
1168.406920 -633.835465 -1765.476024
1165.272934 -633.724120 -1767.377274
1169.977272 -637.125428 -1779.853585
1166.824228 -637.013404 -1781.766450
1346.252147 -503.536380 -997.286958
1343.943440 -503.454353 -998.687612
1341.634490 -503.372322 -1000.088285
1339.325784 -503.290294 -1001.488939
1330.090479 -502.962173 -1007.091714
1327.781660 -502.880139 -1008.492499
1331.931486 -504.781106 -1014.230236
1329.612248 -504.698708 -1015.637202
1333.731062 -506.598585 -1021.393465
1331.401669 -506.515816 -1022.806837
1329.072257 -506.433056 -1024.219965
1334.065100 -508.614517 -1030.625508
1331.723875 -508.531339 -1032.045781
1329.382659 -508.448156 -1033.466176
1328.714391 -510.177941 -1042.126911
1330.346180 -511.989443 -1049.392303
1335.212245 -514.166375 -1055.874600
1332.838633 -514.082043 -1057.314605
1330.465030 -513.997706 -1058.754731
1334.384820 -515.890534 -1064.631945
1332.000911 -515.805839 -1066.078121
1329.617011 -515.721139 -1067.524419
1331.994516 -517.809650 -1075.516576
1329.598803 -517.724531 -1076.970018
1327.203091 -517.639413 -1078.423461
1331.917366 -519.810951 -1084.997888
1329.509962 -519.725415 -1086.458465
1340.389709 -523.869564 -1097.547802
1337.960083 -523.783240 -1099.021827
1335.530335 -523.696914 -1100.495861
1333.100831 -523.610592 -1101.969876
1330.671205 -523.524268 -1103.443901
1328.241448 -523.437947 -1104.917813
1346.859528 -530.111540 -1121.926651
1344.394464 -530.023960 -1123.422109
1186.364530 -604.320637 -1595.498297
1183.429473 -604.216355 -1597.278971
1180.494529 -604.112079 -1599.059514
1184.726572 -607.017978 -1609.464485
1181.775378 -606.913122 -1611.254959
1178.824053 -606.808269 -1613.045321
1185.781514 -619.079753 -1665.431924
1182.759573 -618.972381 -1667.265377
1179.737623 -618.865014 -1669.098708
1184.304455 -622.033315 -1680.479938
1181.264842 -621.925323 -1682.323920
1175.185633 -621.709329 -1686.012129
1171.114138 -624.821287 -1703.813327
1175.502756 -627.983252 -1715.302780
1172.426308 -627.873949 -1717.169159
1169.349861 -627.764647 -1719.035538
1174.283757 -631.196558 -1731.373428
1171.188130 -631.086574 -1733.251431
1168.092504 -630.976590 -1735.129433
1172.949925 -634.405720 -1747.513797
1169.835128 -634.295050 -1749.403545
1171.501145 -637.610793 -1763.724021
1168.367281 -637.499449 -1765.625262
1173.090555 -640.923880 -1778.090863
1169.937389 -640.811854 -1780.003737
1166.784345 -640.699829 -1781.916601
1336.987752 -505.907591 -1002.999548
1330.061276 -505.661498 -1007.201660
1331.902152 -507.492506 -1014.340674
1329.582914 -507.410107 -1015.747640
1333.701598 -509.322028 -1021.504393
1331.372204 -509.239259 -1022.917765
1329.042792 -509.156499 -1024.330894
1334.035487 -511.351742 -1030.736998
1331.694262 -511.268564 -1032.157271
1329.353046 -511.185381 -1033.577666
1333.387784 -513.094308 -1039.385627
1331.036160 -513.010755 -1040.812324
1328.684647 -512.927209 -1042.238891
1332.678105 -514.834699 -1048.071915
1330.316306 -514.750786 -1049.504775
1335.182222 -516.941500 -1055.987634
1332.808609 -516.857168 -1057.427638
1331.970757 -518.593007 -1066.191645
1329.586857 -518.508307 -1067.637943
1327.202836 -518.423605 -1069.084250
1331.964213 -520.610600 -1075.630661
1329.568501 -520.525481 -1077.084104
1327.172788 -520.440363 -1078.537546
1331.886913 -522.625713 -1085.112536
1335.690334 -524.526422 -1091.060804
1340.358977 -526.710152 -1097.663502
1345.004004 -528.893009 -1104.280609
1342.562565 -528.806266 -1105.761778
1340.121126 -528.719523 -1107.242947
1337.679678 -528.632785 -1108.723995
1335.238239 -528.546042 -1110.205164
1346.828349 -532.993473 -1122.044035
1344.363285 -532.905892 -1123.539493
1179.943834 -601.724011 -1572.384938
1189.262472 -607.856317 -1593.857509
1186.327406 -607.752039 -1595.638061
1183.392350 -607.647757 -1597.418735
1187.640437 -610.573263 -1607.814550
1184.689243 -610.468407 -1609.605024
1181.738049 -610.363551 -1611.395498
1186.569775 -613.561940 -1622.616810
1183.600918 -613.456459 -1624.417936
1185.743291 -622.612811 -1665.575829
1182.721350 -622.505439 -1667.409282
1179.699399 -622.398072 -1669.242613
1184.266007 -625.587107 -1680.624687
1181.226394 -625.479115 -1682.468670
1172.387395 -631.470793 -1717.315662
1169.310948 -631.361491 -1719.182041
1166.234379 -631.252186 -1721.048429
1171.148975 -634.705737 -1733.398843
1168.053349 -634.595753 -1735.276845
1172.910527 -638.047324 -1747.662123
1169.795730 -637.936654 -1749.551871
1166.680923 -637.825990 -1751.441498
1163.566238 -637.715327 -1753.331115
1168.327641 -641.163433 -1765.774499
1173.050673 -644.610244 -1778.241012
1169.897507 -644.498218 -1780.153886
1166.744463 -644.386193 -1782.066751
1336.958548 -508.606916 -1003.109494
1327.723254 -508.278790 -1008.712391
1331.872818 -510.203875 -1014.451111
1329.553581 -510.121476 -1015.858077
1333.672133 -512.045471 -1021.615322
1331.342740 -511.962702 -1023.028693
1336.347089 -514.172150 -1029.428093
1334.005873 -514.088967 -1030.848488
1331.664648 -514.005789 -1032.268761
1329.323432 -513.922606 -1033.689156
1333.358040 -515.843607 -1039.497608
1331.006415 -515.760054 -1040.924306
1328.654903 -515.676508 -1042.350873
1332.648231 -517.596042 -1048.184387
1337.525932 -519.800959 -1054.660654
1335.152198 -519.716625 -1056.100667
1332.778586 -519.632292 -1057.540672
1331.933910 -523.411581 -1075.744748
1329.538197 -523.326462 -1077.198190
1327.142485 -523.241343 -1078.651633
1331.856461 -525.440445 -1085.227182
1335.659752 -527.353228 -1091.175943
1340.328246 -529.550709 -1097.779201
1344.973123 -531.747378 -1104.396870
1342.531684 -531.660635 -1105.878039
1347.141235 -533.856024 -1112.517010
1351.727057 -536.050563 -1119.170522
1349.262113 -535.962985 -1120.665971
1353.812609 -538.156274 -1127.340785
1351.335853 -538.068277 -1128.843378
1352.602008 -551.064806 -1188.226631
1350.050049 -550.974141 -1189.774746
1182.808281 -605.218913 -1570.762998
1179.907138 -605.115836 -1572.523090
1184.253737 -608.063745 -1582.859994
1189.225348 -611.287780 -1593.997276
1186.290282 -611.183503 -1595.777828
1183.355226 -611.079220 -1597.558502
1187.603108 -614.023630 -1607.955087
1184.651914 -613.918774 -1609.745561
1181.700720 -613.813918 -1611.536035
1186.532223 -617.032980 -1622.758189
1183.563365 -616.927499 -1624.559315
1188.341887 -620.144743 -1635.813546
1185.705067 -626.145869 -1665.719734
1182.683126 -626.038497 -1667.553187
1187.267165 -629.248834 -1678.925330
1184.227560 -629.140837 -1680.769434
1181.187947 -629.032845 -1682.613416
1166.195466 -634.848969 -1721.194930
1171.109820 -638.324961 -1733.546257
1168.014193 -638.214977 -1735.424260
1172.871129 -641.688928 -1747.810449
1169.756332 -641.578258 -1749.700197
1166.641526 -641.467594 -1751.589824
1163.526841 -641.356931 -1753.479441
1168.288001 -644.827418 -1765.923737
1173.010791 -648.296608 -1778.391161
1169.857625 -648.184582 -1780.304035
1334.162599 -512.997671 -1013.154592
1331.843484 -512.915274 -1014.561549
1329.524247 -512.832876 -1015.968515
1333.642669 -514.768914 -1021.726250
1331.313276 -514.686145 -1023.139622
1336.317476 -516.909375 -1029.539583
1333.976260 -516.826192 -1030.959978
1331.635035 -516.743014 -1032.380251
1335.679809 -518.676421 -1038.183022
1333.328296 -518.592875 -1039.609589
1330.976672 -518.509323 -1041.036286
1328.625159 -518.425777 -1042.462853
1332.618357 -520.357385 -1048.296859
1337.495909 -522.576083 -1054.773687
1322.374606 -523.828571 -1072.203905
1327.112182 -526.042293 -1078.765718
1331.826009 -528.255176 -1085.341829
1335.629169 -530.180034 -1091.291081
1340.297514 -532.391297 -1097.894900
1344.942242 -534.601717 -1104.513130
1342.500803 -534.514974 -1105.994299
1347.110205 -536.724175 -1112.633832
1351.695878 -538.932496 -1119.287906
1349.230934 -538.844917 -1120.783354
1361.673577 -543.633458 -1133.286201
1352.569729 -554.048364 -1188.348154
1350.017771 -553.957699 -1189.896269
1347.465822 -553.867028 -1191.444506
1182.771586 -608.610739 -1570.901151
1179.870443 -608.507662 -1572.661242
1184.216837 -611.474475 -1582.998917
1189.188224 -614.719244 -1594.137042
1186.253158 -614.614966 -1595.917595
1183.318101 -614.510684 -1597.698269
1187.565779 -617.473998 -1608.095623
1184.614585 -617.369142 -1609.886098
1181.663391 -617.264286 -1611.676572
1186.494670 -620.504082 -1622.899570
1183.525812 -620.398601 -1624.700696
1188.304111 -623.636456 -1635.955767
1185.666843 -629.678988 -1665.863641
1182.644902 -629.571616 -1667.697094
1179.622952 -629.464249 -1669.530425
1184.189113 -632.694567 -1680.914181
1171.070665 -641.944124 -1733.693669
1167.975038 -641.834140 -1735.571672
1164.879421 -641.724152 -1737.449796
1161.783915 -641.614169 -1739.327790
1166.602128 -645.109198 -1751.738150
1163.487443 -644.998535 -1753.627767
1172.970909 -651.983033 -1778.541313
1334.133266 -515.709040 -1013.265028
1331.814150 -515.626643 -1014.671985
1329.494913 -515.544245 -1016.078951
1333.613204 -517.492388 -1021.837180
1331.283811 -517.409619 -1023.250552
1336.287862 -519.646600 -1029.651073
1333.946646 -519.563417 -1031.071467
1331.605421 -519.480239 -1032.491741
1329.264205 -519.397056 -1033.912135
1326.922990 -519.313872 -1035.332530
1337.312203 -523.286557 -1045.543602
1334.950272 -523.202646 -1046.976350
1332.588482 -523.118728 -1048.409331
1337.465886 -525.351208 -1054.886720
1341.416147 -527.293341 -1060.747130
1322.344453 -526.615739 -1072.317429
1327.081879 -528.843274 -1078.879805
1331.795557 -531.069939 -1085.456477
1335.598587 -533.006840 -1091.406220
1340.266782 -535.231885 -1098.010600
1344.911362 -537.456086 -1104.629391
1349.532193 -539.679449 -1111.262480
1347.079175 -539.592296 -1112.750654
1351.664699 -541.814398 -1119.405288
1349.199756 -541.726820 -1120.900737
1353.749953 -543.947673 -1127.576674
1359.152108 -546.456226 -1134.915358
1352.537451 -557.031922 -1188.469677
1349.985492 -556.941256 -1190.017792
1347.433543 -556.850586 -1191.566029
1185.636044 -612.105576 -1569.279330
1182.734891 -612.002504 -1571.039300
1187.097217 -614.988917 -1581.367949
1184.179936 -614.885266 -1583.137841
1189.151100 -618.150646 -1594.276807
1186.216034 -618.046369 -1596.057359
1183.280978 -617.942086 -1597.838033
1184.577256 -620.819509 -1610.026634
1186.457117 -623.975122 -1623.040949
1183.488260 -623.869641 -1624.842075
1188.266335 -627.128168 -1636.097988
1185.279702 -627.022056 -1637.909896
1179.584729 -632.997306 -1669.674330
1176.562778 -632.889939 -1671.507662
1181.111053 -636.140306 -1682.902910
1186.253319 -639.669170 -1695.117567
1183.194535 -639.560492 -1696.973295
1171.031509 -645.563348 -1733.841083
1167.935882 -645.453364 -1735.719086
1164.840265 -645.343376 -1737.597211
1161.744760 -645.233393 -1739.475204
1166.562731 -648.750741 -1751.886473
1163.448046 -648.640078 -1753.776090
1172.931027 -655.669397 -1778.691462
1334.562119 -516.622857 -1004.840118
1332.253169 -516.540827 -1006.240790
1331.784816 -518.338042 -1014.782423
1329.465579 -518.255644 -1016.189389
1327.146463 -518.173247 -1017.596346
1331.254347 -520.133062 -1023.361480
1328.924934 -520.050303 -1024.774609
1326.595410 -519.967537 -1026.187868
1331.575808 -522.217464 -1032.603230
1329.234592 -522.134280 -1034.023625
1339.644240 -526.131820 -1044.223083
1337.282329 -526.047899 -1045.656074
1334.920398 -525.963989 -1047.088822
1332.558608 -525.880071 -1048.521803
1337.435862 -528.126333 -1054.999754
1335.062128 -528.041998 -1056.439768
1322.314299 -529.402938 -1072.430954
1327.051576 -531.644224 -1078.993890
1331.765105 -533.884670 -1085.571124
1335.568004 -535.833646 -1091.521358
1333.150313 -535.747743 -1092.988229
1344.880481 -540.310456 -1104.745652
1342.439042 -540.223713 -1106.226822
1347.048145 -542.460447 -1112.867476
1344.594893 -542.373285 -1114.355790
1349.168577 -544.608753 -1121.018121
1353.718624 -546.843418 -1127.694621
1359.120612 -549.367399 -1135.033933
1355.006608 -557.772301 -1176.457060
1352.467867 -557.682104 -1177.997189
1349.929135 -557.591902 -1179.537440
1347.390515 -557.501707 -1181.077560
1344.851895 -557.411512 -1182.617680
1342.313275 -557.321316 -1184.157800
1185.599349 -615.497402 -1569.417483
1182.698196 -615.394330 -1571.177453
1192.048920 -621.686385 -1592.636030
1189.113976 -621.582109 -1594.416574
1186.178910 -621.477832 -1596.197126
1178.637408 -624.060229 -1613.748010
1183.450707 -627.340681 -1624.983453
1180.481728 -627.235198 -1626.784588
1185.241926 -630.513769 -1638.052116
1182.255415 -630.407658 -1639.864014
1179.546505 -636.530364 -1669.818235
1176.524555 -636.422997 -1671.651566
1181.072606 -639.694036 -1683.047657
1178.033002 -639.586039 -1684.891761
1183.155845 -643.136663 -1697.118956
1180.097052 -643.027990 -1698.974562
1170.992354 -649.182572 -1733.988498
1167.896727 -649.072588 -1735.866501
1164.801109 -648.962599 -1737.744625
1161.705604 -648.852617 -1739.622619
1166.523333 -652.392345 -1752.034799
1163.408648 -652.281682 -1753.924416
1172.891145 -659.355762 -1778.841611
1336.841735 -519.404216 -1003.549279
1334.532916 -519.322183 -1004.950064
1332.223966 -519.240152 -1006.350736
1327.117129 -520.884616 -1017.706783
1324.798004 -520.802224 -1019.113618
1328.895470 -522.773746 -1024.885537
1326.565946 -522.690980 -1026.298797
1331.546194 -524.954688 -1032.714720
1329.204979 -524.871505 -1034.135115
1339.614366 -528.893162 -1044.335555
1337.252454 -528.809242 -1045.768546
1334.890524 -528.725332 -1047.201294
1332.528733 -528.641414 -1048.634275
1330.166934 -528.557500 -1050.067136
1335.032104 -530.817123 -1056.552801
1332.658492 -530.732791 -1057.992806
1331.812698 -534.615412 -1076.201091
1329.416985 -534.530293 -1077.654533
1327.021273 -534.445174 -1079.107975
1331.734653 -536.699402 -1085.685770
1335.537421 -538.660452 -1091.636497
1333.119730 -538.574549 -1093.103368
1344.849600 -543.164825 -1104.861914
1342.408161 -543.078082 -1106.343083
1347.017115 -545.328598 -1112.984299
1344.563864 -545.241436 -1114.472612
1349.137398 -547.490655 -1121.135504
1353.687297 -549.739102 -1127.812565
1359.089116 -552.278634 -1135.152510
1355.705083 -558.679537 -1166.697298
1353.178277 -558.589760 -1168.230273
1350.651348 -558.499982 -1169.763258
1348.124541 -558.410205 -1171.296234
1345.597613 -558.320427 -1172.829218
1349.897024 -560.559910 -1179.658330
1347.358405 -560.469715 -1181.198450
1344.819785 -560.379519 -1182.738570
1342.281165 -560.289324 -1184.278690
1347.368986 -562.817702 -1191.809075
1185.562653 -618.889228 -1569.555635
1182.661500 -618.786155 -1571.315605
1192.011796 -625.117788 -1592.775795
1189.076852 -625.013512 -1594.556338
1186.141786 -624.909234 -1596.336890
1177.475319 -630.600757 -1628.727092
1182.217638 -633.899431 -1640.006238
1179.230996 -633.793324 -1641.818024
1176.486332 -639.956055 -1671.795471
1181.034158 -643.247827 -1683.192406
1177.994554 -643.139830 -1685.036510
1183.117156 -646.712773 -1697.264614
1180.058363 -646.604100 -1699.120221
1161.666449 -652.471780 -1739.770031
1166.483935 -656.033949 -1752.183125
1163.369250 -655.923286 -1754.072742
1172.851262 -663.042187 -1778.991763
1169.698096 -662.930160 -1780.904636
1336.812531 -522.103542 -1003.659225
1334.503712 -522.021508 -1005.060010
1327.087795 -523.596016 -1017.817221
1324.768670 -523.513624 -1019.224056
1328.866006 -525.497189 -1024.996466
1326.536481 -525.414423 -1026.409725
1337.912336 -529.757108 -1037.204258
1335.560833 -529.673557 -1038.630946
1333.209321 -529.590011 -1040.057513
1330.857696 -529.506458 -1041.484210
1328.506184 -529.422913 -1042.910777
1326.154550 -529.339365 -1044.337353
1330.137060 -531.318843 -1050.179608
1335.002081 -533.592248 -1056.665835
1332.628468 -533.507915 -1058.105839
1336.557764 -535.485505 -1063.980310
1331.782395 -537.416392 -1076.315177
1329.386682 -537.331273 -1077.768620
1326.990970 -537.246154 -1079.222062
1331.704201 -539.514165 -1085.800418
1329.296797 -539.428629 -1087.260996
1340.174588 -543.753617 -1098.357699
1344.818719 -546.019195 -1104.978175
1342.377280 -545.932452 -1106.459344
1346.986086 -548.196718 -1113.101120
1344.532834 -548.109557 -1114.589434
1349.106219 -550.372618 -1121.252889
1353.655969 -552.634786 -1127.930508
1359.057620 -555.189868 -1135.271087
1361.057059 -557.361423 -1143.495962
1356.053253 -557.183646 -1146.531550
1353.551476 -557.094756 -1148.049395
1357.981823 -559.352744 -1154.799415
1355.468224 -559.263441 -1156.324283
1352.954634 -559.174133 -1157.849273
1350.441044 -559.084824 -1159.374262
1347.927445 -558.995521 -1160.899130
1353.146315 -561.544047 -1168.350604
1350.619386 -561.454269 -1169.883589
1348.092579 -561.364492 -1171.416564
1345.565651 -561.274714 -1172.949549
1343.038722 -561.184936 -1174.482534
1347.326294 -563.437783 -1181.319342
1344.787674 -563.347588 -1182.859462
1342.249054 -563.257393 -1184.399582
1347.336708 -565.801259 -1191.930599
1347.267594 -568.161974 -1202.590036
1344.702428 -568.070835 -1204.146259
1182.624805 -622.177981 -1571.453757
1194.909729 -628.653533 -1591.134887
1191.974672 -628.549251 -1592.915562
1189.039728 -628.444975 -1594.696105
1177.437766 -634.071858 -1628.868474
1182.179862 -637.391144 -1640.148459
1179.193219 -637.285036 -1641.960244
1176.448108 -643.489113 -1671.939376
1180.995711 -646.801558 -1683.337153
1177.956107 -646.693561 -1685.181257
1183.078466 -650.288945 -1697.410275
1166.444538 -659.675553 -1752.331451
1163.329853 -659.564890 -1754.221068
1172.811380 -666.728551 -1779.141912
1169.658214 -666.616524 -1781.054786
1336.783328 -524.802867 -1003.769171
1334.474509 -524.720833 -1005.169956
1327.058461 -526.307415 -1017.927659
1324.739336 -526.225023 -1019.334494
1328.836541 -528.220632 -1025.107394
1326.507017 -528.137866 -1026.520654
1331.486967 -530.429138 -1032.937700
1329.145752 -530.345955 -1034.358094
1330.827952 -532.255758 -1041.596192
1328.476440 -532.172212 -1043.022758
1326.124806 -532.088664 -1044.449334
1330.107185 -534.080186 -1050.292080
1334.972057 -536.367372 -1056.778868
1332.598445 -536.283040 -1058.218873
1336.527610 -538.272674 -1064.093834
1334.143588 -538.187972 -1065.540141
1331.759679 -538.103277 -1066.986317
1329.375780 -538.018577 -1068.432615
1331.752092 -540.217342 -1076.429263
1329.356379 -540.132223 -1077.882705
1326.960667 -540.047105 -1079.336147
1331.673749 -542.328896 -1085.915065
1329.266345 -542.243360 -1087.375643
1340.143856 -546.594235 -1098.473400
1344.787839 -548.873534 -1105.094435
1342.346400 -548.786791 -1106.575604
1346.955056 -551.064900 -1113.217944
1344.501804 -550.977739 -1114.706257
1342.048552 -550.890577 -1116.194571
1346.610097 -553.166942 -1122.865720
1351.147884 -555.442534 -1129.551048
1356.536040 -558.012569 -1136.900372
1354.045945 -557.924101 -1138.410961
1358.523516 -560.197548 -1145.132955
1349.066008 -557.747165 -1141.432240
1346.575791 -557.658695 -1142.942838
1351.018045 -559.930887 -1149.686257
1348.516147 -559.841996 -1151.204111
1346.014248 -559.753105 -1152.721966
1343.512584 -559.664222 -1154.239680
1347.895652 -561.934258 -1161.018827
1345.381940 -561.844948 -1162.543826
1342.868350 -561.755639 -1164.068816
1340.354751 -561.666336 -1165.593684
1345.533689 -564.229001 -1173.069880
1343.006761 -564.139223 -1174.602865
1347.294183 -566.405852 -1181.440234
1344.755563 -566.315657 -1182.980354
1342.216943 -566.225461 -1184.520474
1339.678202 -566.135264 -1186.060604
1347.235148 -571.161021 -1202.712190
1182.588110 -625.569807 -1571.591910
1194.872605 -632.084936 -1591.274652
1191.937548 -631.980653 -1593.055326
1189.002604 -631.876378 -1594.835869
1177.400213 -637.542898 -1629.009852
1174.431365 -637.437412 -1630.811099
1179.155443 -640.776749 -1642.102465
1176.409884 -647.022231 -1672.083283
1173.387934 -646.914864 -1673.916615
1177.917660 -650.247291 -1685.326004
1183.039777 -653.865055 -1697.555934
1179.980984 -653.756382 -1699.411540
1166.405140 -663.317157 -1752.479777
1163.290455 -663.206494 -1754.369394
1160.175648 -663.095829 -1756.259021
1164.916175 -666.700037 -1768.720415
1169.618332 -670.302888 -1781.204935
1341.371659 -527.666279 -1001.077801
1339.062952 -527.584252 -1002.478455
1336.754124 -527.502222 -1003.879118
1327.029128 -529.018784 -1018.038095
1324.710003 -528.936392 -1019.444930
1328.807077 -530.944075 -1025.218322
1326.477553 -530.861309 -1026.631582
1331.457354 -533.166363 -1033.049189
1329.116138 -533.083180 -1034.469584
1330.077311 -536.841529 -1050.404552
1327.715389 -536.757613 -1051.837421
1332.568421 -539.058164 -1058.331906
1336.497456 -541.059873 -1064.207359
1334.113434 -540.975171 -1065.653666
1331.729525 -540.890476 -1067.099842
1329.345625 -540.805776 -1068.546140
1324.534651 -542.762966 -1080.903676
1329.235893 -545.058092 -1087.490289
1340.113124 -549.434793 -1098.589098
1337.683498 -549.348469 -1100.063123
1335.253751 -549.262143 -1101.537157
1339.874080 -551.554448 -1108.173035
1337.432632 -551.467710 -1109.654083
1342.017522 -553.758698 -1116.311392
1339.564270 -553.671536 -1117.799706
1351.116556 -558.338218 -1129.668992
1356.504544 -560.923803 -1137.018950
1354.014449 -560.835335 -1138.529538
1351.524485 -560.746865 -1140.040239
1349.034512 -560.658399 -1141.550818
1346.544295 -560.569930 -1143.061415
1344.054331 -560.481459 -1144.572116
1341.564368 -560.392988 -1146.082817
1345.982604 -562.678060 -1152.841102
1343.480939 -562.589177 -1154.358816
1340.979031 -562.500291 -1155.876549
1338.477133 -562.411400 -1157.394403
1342.836556 -564.694437 -1164.188516
1340.322957 -564.605134 -1165.713384
1345.501728 -567.183227 -1173.190209
1342.974799 -567.093449 -1174.723194
1340.447993 -567.003672 -1176.256169
1344.723452 -569.283725 -1183.101247
1349.824099 -571.859106 -1190.625410
1347.202702 -574.160068 -1202.834344
1182.551414 -628.961633 -1571.730062
1194.835481 -635.516399 -1591.414419
1191.900424 -635.412117 -1593.195093
1183.300497 -641.224902 -1625.548971
1180.331518 -641.119419 -1627.350106
1177.362661 -641.013938 -1629.151231
1174.393813 -640.908452 -1630.952478
1179.117667 -644.268462 -1642.244686
1176.371661 -650.555289 -1672.227188
1173.349711 -650.447922 -1674.060520
1177.879213 -653.801021 -1685.470751
1183.001087 -657.441227 -1697.701594
1179.942294 -657.332554 -1699.557201
1169.480549 -667.069426 -1750.738477
1166.365742 -666.958761 -1752.628103
1163.251057 -666.848098 -1754.517720
1160.136251 -666.737433 -1756.407347
1164.876535 -670.364021 -1768.869652
1169.578450 -673.989252 -1781.355084
1343.233846 -532.306964 -1008.299817
1324.680669 -531.647792 -1019.555368
1330.047436 -539.602872 -1050.517024
1330.164795 -541.748952 -1059.885066
1334.083281 -543.762339 -1065.767190
1331.699371 -543.677644 -1067.213366
1329.315472 -543.592944 -1068.659664
1329.205440 -547.872854 -1087.604937
1332.997400 -549.881742 -1093.563920
1337.652767 -552.189026 -1100.178822
1335.223019 -552.102700 -1101.652856
1339.843199 -554.408787 -1108.289295
1337.401751 -554.322049 -1109.770343
1341.986493 -556.626818 -1116.428213
1339.533241 -556.539657 -1117.916527
1344.082674 -558.843227 -1124.595946
1348.608473 -561.145904 -1131.289529
1346.131595 -561.057905 -1132.792131
1351.492990 -563.658038 -1140.158814
1349.003016 -563.569572 -1141.669393
1346.512800 -563.481103 -1143.179990
1344.022836 -563.392632 -1144.690691
1341.532872 -563.304162 -1146.201392
1339.042656 -563.215692 -1147.711989
1336.552683 -563.127227 -1149.222569
1340.947386 -565.425307 -1155.995688
1338.445488 -565.336416 -1157.513542
1342.804763 -567.633174 -1164.308213
1340.291164 -567.543870 -1165.833081
1345.469766 -570.137514 -1173.310540
1342.942838 -570.047735 -1174.843524
1347.229961 -572.341989 -1181.682019
1344.691341 -572.251794 -1183.222139
1349.791821 -574.842664 -1190.746934
1347.239872 -574.751994 -1192.295171
1344.688044 -574.661325 -1193.843398
1347.170256 -577.159115 -1202.956498
1185.415872 -632.456470 -1570.108242
1182.514719 -632.353397 -1571.868212
1194.798357 -638.947801 -1591.554183
1191.863301 -638.843519 -1593.334857
1183.262945 -644.695942 -1625.690350
1180.293966 -644.590459 -1627.491485
1177.325108 -644.484978 -1629.292610
1182.066533 -647.866343 -1640.575123
1179.079891 -647.760235 -1642.386909
1176.333437 -654.088347 -1672.371093
1173.311487 -653.980980 -1674.204424
1182.962398 -661.017337 -1697.847253
1166.326345 -670.600304 -1752.776427
1163.211660 -670.489641 -1754.666044
1167.970881 -674.139351 -1767.117640
1164.836895 -674.028005 -1769.018890
1161.703030 -673.916661 -1770.920131
1166.385523 -677.563652 -1783.418100
1163.232479 -677.451628 -1785.330965
1160.079435 -677.339603 -1787.243829
1340.763009 -538.973536 -1027.590833
1330.017562 -542.364214 -1050.629496
1330.134771 -544.524076 -1059.998099
1334.053126 -546.549538 -1065.880715
1331.669217 -546.464843 -1067.326892
1336.452730 -548.790462 -1073.864626
1324.474045 -548.364866 -1081.131847
1329.174988 -550.687617 -1087.719585
1332.966818 -552.708518 -1093.679058
1337.622035 -555.029644 -1100.294523
1335.192287 -554.943318 -1101.768557
1339.812319 -557.263126 -1108.405555
1337.370871 -557.176388 -1109.886603
1334.929432 -557.089645 -1111.367772
1339.502211 -559.407838 -1118.033351
1344.051495 -561.725130 -1124.713328
1348.577144 -564.041649 -1131.407475
1346.100266 -563.953650 -1132.910078
1343.623632 -563.865654 -1134.412661
1341.146754 -563.777655 -1135.915264
1336.193242 -563.601660 -1138.920450
1341.501376 -566.215396 -1146.319969
1340.915742 -568.350262 -1156.114824
1338.413843 -568.261371 -1157.632678
1335.912067 -568.172481 -1159.150523
1333.410280 -568.083597 -1160.668247
1337.745658 -570.393358 -1167.477780
1342.910876 -573.002022 -1174.963855
1347.197851 -575.309997 -1181.802909
1344.659231 -575.219801 -1183.343029
1342.120611 -575.129606 -1184.883149
1347.207593 -577.735551 -1192.416694
1344.655766 -577.644883 -1193.964921
1188.280198 -635.951371 -1568.486312
1185.379177 -635.848295 -1570.246394
1194.761233 -642.379265 -1591.693950
1191.826176 -642.274983 -1593.474624
1183.225392 -648.167043 -1625.831731
1180.256412 -648.061560 -1627.632866
1177.287555 -647.956079 -1629.433991
1182.028757 -651.358056 -1640.717344
1179.042114 -651.251948 -1642.529130
1179.317164 -657.728772 -1670.681666
1176.295214 -657.621405 -1672.514998
1173.273264 -657.514038 -1674.348329
1182.923709 -664.593447 -1697.992911
1179.864916 -664.484774 -1699.848517
1169.401754 -674.352573 -1751.035126
1166.286947 -674.241908 -1752.924753
1171.065106 -677.914679 -1765.365636
1167.931241 -677.803335 -1767.266877
1172.651852 -681.474068 -1779.742511
1169.498686 -681.362041 -1781.655385
1166.345641 -681.250017 -1783.568249
1163.192597 -681.137992 -1785.481114
1340.733395 -541.710761 -1027.702323
1338.392180 -541.627578 -1029.122718
1336.050955 -541.544399 -1030.542991
1329.987688 -545.125557 -1050.741968
1327.625766 -545.041642 -1052.174838
1332.478351 -547.383538 -1058.671007
1330.104748 -547.299201 -1060.111133
1334.022973 -549.336676 -1065.994238
1331.639064 -549.251981 -1067.440415
1329.255164 -549.167281 -1068.886712
1329.144536 -553.502318 -1087.834231
1326.736889 -553.416779 -1089.294827
1337.591303 -557.870201 -1100.410221
1335.161556 -557.783876 -1101.884255
1339.781438 -560.117526 -1108.521818
1337.339989 -560.030788 -1110.002865
1334.898551 -559.944045 -1111.484034
1339.471181 -562.275959 -1118.150172
1344.020316 -564.607093 -1124.830713
1348.545816 -566.937333 -1131.525419
1346.068938 -566.849334 -1133.028022
1343.592304 -566.761338 -1134.530605
1333.378635 -571.008613 -1160.787385
1330.876737 -570.919721 -1162.305240
1335.200265 -573.242791 -1169.122346
1340.352107 -575.866533 -1176.617162
1344.627120 -578.187870 -1183.463921
1342.088500 -578.097674 -1185.004041
1339.549759 -578.007477 -1186.544170
1344.623487 -580.628441 -1194.086444
1191.144656 -639.446269 -1566.864494
1188.243503 -639.343196 -1568.624464
1185.342481 -639.240121 -1570.384546
1189.719427 -642.378647 -1580.709558
1194.724109 -645.810728 -1591.833716
1191.789052 -645.706446 -1593.614390
1188.854108 -645.602170 -1595.394934
1186.156696 -651.743564 -1624.171984
1183.187839 -651.638083 -1625.973110
1180.218860 -651.532601 -1627.774245
1177.250003 -651.427120 -1629.575370
1174.281155 -651.321634 -1631.376617
1179.004338 -654.743661 -1642.671351
1176.017827 -654.637550 -1644.483249
1176.256990 -661.154523 -1672.658905
1173.235040 -661.047156 -1674.492237
1185.943803 -668.278297 -1696.282844
1169.362356 -677.994177 -1751.183452
1166.247549 -677.883512 -1753.073079
1171.025466 -681.578663 -1765.514874
1167.891602 -681.467319 -1767.416115
1164.757615 -681.355973 -1769.317365
1169.458804 -685.048406 -1781.805534
1166.305759 -684.936381 -1783.718398
1163.152715 -684.824356 -1785.631263
1340.703782 -544.447986 -1027.813813
1338.362566 -544.364802 -1029.234208
1336.021341 -544.281624 -1030.654481
1332.319613 -547.970783 -1049.421579
1329.957814 -547.886870 -1050.854439
1327.595892 -547.802954 -1052.287309
1332.448327 -550.158663 -1058.784040
1330.074724 -550.074326 -1060.224166
1333.992819 -552.123875 -1066.107763
1331.608910 -552.039180 -1067.553940
1329.225010 -551.954480 -1069.000238
1324.413439 -553.966828 -1081.360020
1329.114084 -556.317080 -1087.948879
1326.706437 -556.231541 -1089.409475
1337.560571 -560.710820 -1100.525922
1335.130824 -560.624494 -1101.999956
1339.750557 -562.971865 -1108.638078
1337.309109 -562.885127 -1110.119125
1334.867670 -562.798384 -1111.600294
1339.440151 -565.144140 -1118.266996
1336.987021 -565.056981 -1119.755300
1348.514488 -569.833017 -1131.643363
1346.037611 -569.745018 -1133.145966
1343.560976 -569.657022 -1134.648549
1333.346991 -573.933568 -1160.906522
1330.845092 -573.844676 -1162.424376
1335.168471 -576.181589 -1169.242046
1340.320145 -578.820819 -1176.737493
1337.793226 -578.731036 -1178.270599
1342.056389 -581.065743 -1185.124933
1339.517648 -580.975546 -1186.665062
1194.009103 -642.941171 -1565.242554
1191.107960 -642.838094 -1567.002646
1188.206807 -642.735022 -1568.762616
1192.599807 -645.893089 -1579.078591
1189.682526 -645.789438 -1580.848483
1194.686985 -649.242131 -1591.973481
1191.751928 -649.137848 -1593.754155
1188.816984 -649.033573 -1595.534698
1186.119144 -655.214604 -1624.313363
1183.150287 -655.109123 -1626.114489
1180.181308 -655.003641 -1627.915623
1184.939716 -658.447592 -1639.189888
1181.953205 -658.341481 -1641.001786
1178.966562 -658.235373 -1642.813572
1182.262667 -664.902316 -1669.136147
1179.240717 -664.794948 -1670.969478
1176.218767 -664.687581 -1672.802810
1180.765028 -668.124001 -1684.205636
1177.725424 -668.016004 -1686.049741
1182.846330 -671.745729 -1698.284230
1179.787537 -671.637056 -1700.139837
1172.437756 -681.746450 -1749.442030
1169.322958 -681.635781 -1751.331778
1166.208152 -681.525116 -1753.221405
1170.985826 -685.242647 -1765.664112
1167.851962 -685.131303 -1767.565352
1164.717975 -685.019957 -1769.466603
1169.418921 -688.734831 -1781.955685
1166.265877 -688.622806 -1783.868550
1163.112832 -688.510781 -1785.781415
1340.674169 -547.185180 -1027.925302
1338.332953 -547.101997 -1029.345696
1335.991728 -547.018818 -1030.765969
1332.289739 -550.732126 -1049.534051
1329.927939 -550.648213 -1050.966911
1327.566018 -550.564297 -1052.399781
1332.418304 -552.933787 -1058.897073
1330.044701 -552.849450 -1060.337200
1327.670967 -552.765116 -1061.777213
1331.578756 -554.826378 -1067.667465
1329.194856 -554.741678 -1069.113763
1326.778849 -556.852866 -1080.020662
1324.383136 -556.767747 -1081.474104
1321.987423 -556.682628 -1082.927547
1332.875070 -561.188966 -1094.024474
1330.457135 -561.103060 -1095.491364
1335.100092 -563.465051 -1102.115655
1332.670588 -563.378729 -1103.589670
1344.315625 -568.186584 -1115.407190
1341.862373 -568.099423 -1116.895504
1346.423023 -570.458478 -1123.570021
1343.957959 -570.370898 -1125.065479
1348.483160 -572.728763 -1131.761310
1346.006282 -572.640763 -1133.263912
1343.529648 -572.552767 -1134.766496
1333.315346 -576.858584 -1161.025660
1337.650277 -579.209629 -1167.836875
1188.170112 -646.126848 -1568.900768
1185.269090 -646.023772 -1570.660851
1189.645625 -649.200229 -1580.987407
1186.728213 -649.096581 -1582.757187
1191.714804 -652.569312 -1593.893922
1188.779860 -652.465036 -1595.674465
1190.106364 -655.533075 -1607.851182
1187.155160 -655.428223 -1609.641535
1192.019418 -658.896674 -1620.852363
1189.050448 -658.791186 -1622.653619
1186.081591 -658.685705 -1624.454744
1183.112734 -658.580224 -1626.255870
1187.888572 -662.045478 -1637.520203
1184.901939 -661.939365 -1639.332111
1181.915428 -661.833255 -1641.144009
1182.224444 -668.435373 -1669.280052
1179.202493 -668.328006 -1671.113383
1176.180543 -668.220639 -1672.946715
1180.726581 -671.677731 -1684.350383
1177.686977 -671.569734 -1686.194487
1182.807640 -675.321901 -1698.429891
1179.748847 -675.213227 -1700.285498
1176.690063 -675.104550 -1702.141226
1168.805078 -678.119974 -1721.086559
1173.735583 -681.865328 -1733.437215
1170.639956 -681.755344 -1735.315218
1172.398358 -685.388054 -1749.590356
1169.283561 -685.277385 -1751.480104
1166.168754 -685.166720 -1753.369731
1170.946186 -688.906631 -1765.813349
1167.812322 -688.795287 -1767.714590
1164.678336 -688.683941 -1769.615840
1169.379039 -692.421195 -1782.105834
1166.225995 -692.309170 -1784.018699
1163.072950 -692.197145 -1785.931564
1340.644555 -549.922435 -1028.036793
1338.303339 -549.839252 -1029.457187
1335.962114 -549.756074 -1030.877460
1328.268232 -551.417214 -1043.806626
1332.259864 -553.493469 -1049.646523
1329.898065 -553.409555 -1051.079383
1334.761893 -555.793244 -1057.570102
