# .PCD v.7 - Point Cloud Data file format
VERSION .7
FIELDS x y z
SIZE 4 4 4
TYPE F F F
COUNT 1 1 1
WIDTH 1313
HEIGHT 1
POINTS 1313
DATA ascii
1381.662058 -354.412751 -657.232369
1413.259039 -361.645439 -700.386095
1411.573733 -361.527577 -702.606044
1409.888427 -361.409715 -704.825994
1401.423940 -360.128324 -704.340046
1375.152644 -356.124273 -702.376320
1373.497524 -356.008521 -704.556516
1371.842397 -355.892773 -706.736652
1370.187392 -355.777026 -708.916775
1368.532272 -355.661275 -711.096971
1366.877267 -355.545527 -713.277094
1375.310071 -357.514129 -725.440491
1373.640398 -357.397359 -727.639863
1371.970725 -357.280590 -729.839236
1370.301046 -357.163824 -732.038548
1368.631373 -357.047054 -734.237921
1366.961693 -356.930288 -736.437233
1376.182757 -359.052497 -749.224629
1374.497451 -358.934635 -751.444578
1372.812260 -358.816777 -753.664454
1371.126960 -358.698912 -755.884464
1369.441647 -358.581053 -758.104353
1367.756341 -358.463191 -760.324303
1373.610552 -359.660515 -765.910906
1371.916950 -359.542070 -768.141838
1370.223227 -359.423624 -770.372782
1368.529618 -359.305183 -772.603653
1366.836010 -359.186741 -774.834524
1365.142408 -359.068296 -777.065456
1375.782057 -361.289721 -787.984095
1374.072828 -361.170180 -790.235665
1372.363586 -361.050646 -792.487112
1370.654351 -360.931109 -794.738621
1368.945109 -360.811575 -796.990069
1374.675355 -362.000223 -802.740068
1372.957703 -361.880102 -805.002571
1371.240171 -361.759982 -807.265062
1369.522634 -361.639864 -809.527492
1367.804975 -361.519746 -811.789935
1366.087444 -361.399626 -814.052425
1364.369913 -361.279506 -816.314916
1370.033299 -362.463490 -822.152763
1360.934723 -361.039267 -820.839849
1359.217186 -360.919150 -823.102279
1357.499654 -360.799030 -825.364770
1363.129729 -361.980684 -831.246497
1361.403781 -361.859980 -833.519983
1359.677826 -361.739279 -835.793408
1357.951993 -361.618579 -838.066820
1356.226038 -361.497878 -840.340245
1356.603573 -362.312188 -853.140966
1354.869329 -362.190901 -855.425433
1367.034815 -365.503915 -880.956668
1365.274596 -365.380807 -883.275422
1363.514250 -365.257702 -885.594128
1361.754031 -365.134594 -887.912882
1359.993685 -365.011489 -890.231588
1358.233460 -364.888385 -892.550281
1369.041701 -367.220116 -904.909087
1367.264763 -367.095845 -907.249758
1365.487825 -366.971574 -909.590428
1363.710887 -366.847303 -911.931098
1361.933949 -366.723032 -914.271768
1360.157011 -366.598760 -916.612439
1358.380079 -366.474486 -918.953170
1356.603141 -366.350215 -921.293840
1354.826203 -366.225944 -923.634510
1353.049258 -366.101676 -925.975120
1355.551721 -367.950983 -950.937137
1353.757105 -367.825474 -953.301111
1351.962373 -367.699962 -955.665159
1350.167757 -367.574453 -958.029133
1348.373147 -367.448942 -960.393168
1346.578524 -367.323437 -962.757082
1344.783799 -367.197921 -965.121190
1342.989176 -367.072416 -967.485104
1341.194566 -366.946904 -969.849139
1351.424184 -369.435115 -986.294509
1349.610802 -369.308298 -988.683127
1355.585517 -370.612538 -995.773160
1345.983944 -369.054651 -993.460618
1344.170563 -368.927834 -995.849236
1342.357194 -368.801011 -998.237975
1340.543813 -368.674194 -1000.626593
1338.730445 -368.547371 -1003.015332
1336.916955 -368.420547 -1005.404084
1335.103574 -368.293730 -1007.792702
1341.003255 -369.592723 -1014.981552
1339.180498 -369.465249 -1017.382553
1337.357753 -369.337769 -1019.783674
1335.534996 -369.210294 -1022.184675
1333.712239 -369.082820 -1024.585675
1331.889494 -368.955340 -1026.986797
1330.066615 -368.827865 -1029.387810
1332.489720 -370.770137 -1056.116604
1330.648211 -370.641348 -1058.542369
1336.379169 -371.928548 -1065.953363
1229.260194 -383.346985 -1526.207387
1227.209441 -383.203560 -1528.908820
1225.158457 -383.060128 -1531.610399
1223.107582 -382.916702 -1534.311844
1213.348215 -381.150807 -1528.882716
1211.308768 -381.008180 -1531.569113
1209.269320 -380.865554 -1534.255509
1207.229873 -380.722927 -1536.941905
1205.190559 -380.580295 -1539.628410
1203.151112 -380.437668 -1542.314806
1201.111664 -380.295042 -1545.001202
1206.700523 -381.769265 -1555.924025
1204.649648 -381.625840 -1558.625470
1202.598786 -381.482408 -1561.327036
1200.547911 -381.338983 -1564.028481
1198.497048 -381.195551 -1566.730048
1201.902277 -383.698941 -1600.476231
1199.827486 -383.553834 -1603.209356
1197.752694 -383.408726 -1605.942482
1203.157190 -384.870066 -1617.107964
1201.070971 -384.724160 -1619.856139
1198.984631 -384.578253 -1622.604326
1196.898290 -384.432346 -1625.352513
1194.812071 -384.286439 -1628.100688
1200.822528 -385.888670 -1640.130286
1198.723686 -385.741886 -1642.894983
1196.624965 -385.595103 -1645.659667
1194.526111 -385.448326 -1648.424243
1200.474169 -387.046181 -1660.536257
1198.362800 -386.898533 -1663.317222
1196.251579 -386.750874 -1666.098416
1194.140223 -386.603220 -1668.879502
1203.750022 -389.639006 -1696.115134
1201.613650 -389.489606 -1698.929118
1199.477413 -389.340200 -1701.743211
1197.341163 -389.190800 -1704.557183
1195.204792 -389.041399 -1707.371167
1193.068555 -388.891993 -1710.185260
1190.932183 -388.742593 -1712.999244
1188.795933 -388.593193 -1715.813216
1186.659696 -388.443787 -1718.627309
1192.382640 -390.025878 -1731.035651
1190.233889 -389.875602 -1733.866133
1188.085138 -389.725326 -1736.696614
1193.198541 -393.825512 -1793.126446
1191.010234 -393.672464 -1796.009124
1188.821792 -393.519422 -1798.891693
1186.633485 -393.366375 -1801.774371
1184.445044 -393.213333 -1804.656940
1182.256724 -393.060292 -1807.539497
1180.068296 -392.907244 -1810.422188
1391.450697 -357.795717 -644.472569
1389.818541 -357.681571 -646.622533
1388.186385 -357.567425 -648.772497
1386.554229 -357.453279 -650.922461
1384.922072 -357.339133 -653.072426
1383.289916 -357.224986 -655.222390
1381.657760 -357.110840 -657.372354
1411.569296 -364.313468 -702.750584
1409.883989 -364.195607 -704.970534
1385.230364 -360.266828 -700.874117
1383.567900 -360.150571 -703.063847
1375.148286 -358.860244 -702.518270
1373.493166 -358.744493 -704.698466
1371.838039 -358.628744 -706.878602
1370.183034 -358.512997 -709.058725
1368.527914 -358.397246 -711.238921
1375.305675 -360.274207 -725.583691
1373.636002 -360.157437 -727.783064
1371.966329 -360.040668 -729.982437
1370.296649 -359.923902 -732.181749
1368.626976 -359.807132 -734.381121
1371.215658 -360.789860 -744.269841
1376.178320 -361.838389 -749.369169
1374.493013 -361.720527 -751.589118
1372.807822 -361.602669 -753.808994
1371.122522 -361.484804 -756.029004
1376.993303 -362.697069 -761.594358
1375.299695 -362.578627 -763.825229
1373.606093 -362.460182 -766.056161
1371.912491 -362.341737 -768.287093
1370.218767 -362.223291 -770.518037
1368.525159 -362.104850 -772.748908
1366.831550 -361.986408 -774.979779
1365.137948 -361.867963 -777.210711
1375.777556 -364.115232 -788.130691
1374.068327 -363.995692 -790.382260
1372.359086 -363.876157 -792.633708
1370.649850 -363.756620 -794.885216
1368.940609 -363.637086 -797.136664
1374.670832 -364.839510 -802.887378
1372.953180 -364.719389 -805.149882
1371.235649 -364.599268 -807.412372
1369.518111 -364.479151 -809.674802
1367.800453 -364.359033 -811.937245
1366.082921 -364.238913 -814.199736
1364.365390 -364.118792 -816.462226
1370.028755 -365.316552 -822.300788
1360.930200 -363.878554 -820.987159
1359.212663 -363.758437 -823.249589
1357.495132 -363.638316 -825.512080
1363.125185 -364.833746 -831.394523
1361.399236 -364.713042 -833.668008
1359.673282 -364.592341 -835.941433
1357.947448 -364.471641 -838.214845
1356.221494 -364.350940 -840.488270
1354.495667 -364.230236 -842.761743
1354.864762 -365.057738 -855.574173
1367.030180 -368.413815 -881.107642
1365.269961 -368.290708 -883.426396
1363.509615 -368.167603 -885.745102
1361.749396 -368.044495 -888.063856
1359.989050 -367.921390 -890.382562
1358.228825 -367.798286 -892.701255
1365.483146 -369.908995 -909.742830
1363.706208 -369.784724 -912.083500
1361.929270 -369.660453 -914.424170
1360.152332 -369.536182 -916.764841
1358.375400 -369.411907 -919.105572
1356.598462 -369.287636 -921.446242
1354.821524 -369.163365 -923.786912
1353.044579 -369.039097 -926.127522
1346.729582 -369.499332 -949.406950
1344.943261 -369.374407 -951.759942
1350.163032 -370.541132 -958.183053
1348.368422 -370.415620 -960.547088
1346.573799 -370.290115 -962.911002
1344.779074 -370.164600 -965.275110
1342.984451 -370.039094 -967.639023
1341.189841 -369.913583 -970.003058
1349.606027 -372.306002 -988.838656
1347.792659 -372.179178 -991.227396
1345.979169 -372.052354 -993.616148
1344.165788 -371.925538 -996.004765
1342.352419 -371.798714 -998.393505
1340.539038 -371.671898 -1000.782123
1338.725670 -371.545074 -1003.170862
1336.912180 -371.418250 -1005.559614
1335.098799 -371.291433 -1007.948232
1333.285430 -371.164610 -1010.336971
1331.472049 -371.037793 -1012.725589
1329.658680 -370.910970 -1015.114328
1335.530196 -372.223480 -1022.341008
1333.707439 -372.096006 -1024.742008
1331.884694 -371.968526 -1027.143130
1330.061816 -371.841050 -1029.544143
1332.484871 -373.814318 -1056.274545
1330.643362 -373.685529 -1058.700310
1227.204040 -386.593832 -1529.084717
1225.153057 -386.450400 -1531.786296
1223.102181 -386.306974 -1534.487741
1213.342845 -384.522122 -1529.057630
1211.303398 -384.379496 -1531.744026
1209.263950 -384.236869 -1534.430422
1207.224503 -384.094243 -1537.116818
1205.185189 -383.951611 -1539.803323
1203.145742 -383.808984 -1542.489719
1201.106294 -383.666358 -1545.176115
1199.066847 -383.523731 -1547.862512
1204.644248 -385.016112 -1558.801367
1202.593385 -384.872680 -1561.502933
1200.542510 -384.729255 -1564.204378
1198.491648 -384.585823 -1566.905945
1201.896814 -387.128802 -1600.654182
1207.324269 -388.610691 -1611.790659
1205.237928 -388.464784 -1614.538846
1203.151696 -388.318884 -1617.286899
1201.065478 -388.172978 -1620.035074
1198.979137 -388.027071 -1622.783261
1196.892797 -387.881163 -1625.531448
1194.806578 -387.735257 -1628.279622
1200.817001 -389.358150 -1640.310293
1198.718159 -389.211367 -1643.074990
1196.619439 -389.064584 -1645.839674
1194.520585 -388.917807 -1648.604250
1192.421851 -388.771030 -1651.368813
1190.323010 -388.624246 -1654.133510
1194.134664 -390.093333 -1669.060579
1192.023429 -389.945680 -1671.841652
1189.912073 -389.798026 -1674.622738
1199.471788 -392.871639 -1701.926432
1197.335538 -392.722240 -1704.740404
1195.199167 -392.572839 -1707.554388
1193.062929 -392.423433 -1710.368481
1190.926558 -392.274032 -1713.182466
1188.790308 -392.124633 -1715.996437
1186.654071 -391.975227 -1718.810530
1184.517821 -391.825827 -1721.624502
1190.228231 -393.427735 -1734.050428
1188.079479 -393.277459 -1736.880909
1185.930607 -393.127182 -1739.711404
1183.781855 -392.976906 -1742.541885
1181.633104 -392.826629 -1745.372367
1179.484231 -392.676352 -1748.202861
1193.192778 -397.443078 -1793.314135
1191.004471 -397.290031 -1796.196813
1188.816030 -397.136989 -1799.079383
1186.627723 -396.983941 -1801.962061
1184.439282 -396.830899 -1804.844630
1182.250962 -396.677858 -1807.727187
1180.062534 -396.524810 -1810.609878
1393.772218 -359.229426 -618.274986
1391.446400 -360.493837 -644.612555
1389.814243 -360.379690 -646.762519
1388.182087 -360.265544 -648.912483
1386.549931 -360.151398 -651.062448
1384.917775 -360.037252 -653.212412
1383.285618 -359.923106 -655.362376
1381.653462 -359.808960 -657.512340
1411.564858 -367.099391 -702.895126
1409.879552 -366.981529 -705.115075
1386.888322 -363.131098 -698.826913
1385.225986 -363.014838 -701.016691
1376.798939 -361.711959 -700.480158
1375.143928 -361.596215 -702.660220
1373.488807 -361.480464 -704.840416
1371.833681 -361.364716 -707.020552
1370.178676 -361.248968 -709.200675
1375.251703 -362.317289 -714.155143
1371.961932 -362.800746 -730.125637
1377.923249 -364.033118 -735.572446
1376.245280 -363.915766 -737.782801
1374.567190 -363.798412 -739.993169
1372.889215 -363.681063 -742.203463
1371.211239 -363.563714 -744.413757
1376.173882 -364.624311 -749.513711
1374.488576 -364.506449 -751.733660
1372.803385 -364.388591 -753.953536
1371.118085 -364.270726 -756.173546
1369.432772 -364.152867 -758.393435
1367.747466 -364.035005 -760.613384
1373.601633 -365.259880 -766.201417
1371.908031 -365.141435 -768.432349
1370.214308 -365.022989 -770.663293
1368.520699 -364.904547 -772.894164
1366.827091 -364.786106 -775.125035
1365.133489 -364.667661 -777.355967
1374.063826 -366.821203 -790.528856
1372.354585 -366.701669 -792.780304
1370.645350 -366.582131 -795.031812
1368.936108 -366.462597 -797.283260
1374.666310 -367.678796 -803.034689
1365.517631 -366.223526 -801.786216
1363.808403 -366.103985 -804.037785
1362.099161 -365.984451 -806.289233
1367.795930 -367.198320 -812.084555
1366.078399 -367.078199 -814.347046
1364.360868 -366.958079 -816.609536
1370.024210 -368.169614 -822.448813
1368.298377 -368.048914 -824.722225
1359.208140 -366.597723 -823.396900
1357.490609 -366.477603 -825.659390
1363.120640 -367.686808 -831.542548
1361.394692 -367.566104 -833.816033
1359.668737 -367.445403 -836.089458
1357.942904 -367.324703 -838.362870
1356.216949 -367.204002 -840.636295
1354.491122 -367.083298 -842.909768
1360.062941 -368.288431 -848.869631
1356.594440 -368.045863 -853.438445
1354.860196 -367.924576 -855.722913
1367.025544 -371.323686 -881.258615
1365.265326 -371.200578 -883.577369
1363.504980 -371.077473 -885.896074
1361.744761 -370.954366 -888.214828
1359.984415 -370.831260 -890.533534
1358.224190 -370.708156 -892.852227
1356.463844 -370.585051 -895.170933
1363.701529 -372.722145 -912.235902
1361.924591 -372.597874 -914.576572
1360.147653 -372.473603 -916.917243
1358.370721 -372.349328 -919.257973
1356.593783 -372.225057 -921.598644
1345.950514 -370.665257 -922.319011
1348.511198 -372.577192 -947.207165
1346.724878 -372.452266 -949.560157
1344.938557 -372.327341 -951.913149
1343.152250 -372.202409 -954.266262
1341.365929 -372.077484 -956.619255
1346.569073 -373.256824 -963.064923
1344.774348 -373.131309 -965.429031
1342.979725 -373.005803 -967.792945
1341.185115 -372.880292 -970.156980
1351.414634 -375.430492 -986.605567
1349.601252 -375.303675 -988.994184
1347.787884 -375.176852 -991.382924
1345.974394 -375.050028 -993.771675
1344.161013 -374.923211 -996.160293
1342.347644 -374.796388 -998.549033
1340.534263 -374.669571 -1000.937651
1338.720895 -374.542748 -1003.326390
1336.907405 -374.415924 -1005.715142
1335.094024 -374.289107 -1008.103760
1333.280655 -374.162284 -1010.492499
1331.467274 -374.035467 -1012.881117
1329.653906 -373.908644 -1015.269856
1335.525397 -375.236666 -1022.497340
1333.702639 -375.109192 -1024.898341
1331.879895 -374.981711 -1027.299462
1330.057016 -374.854236 -1029.700475
1335.881736 -376.178979 -1036.989738
1334.049602 -376.050848 -1039.403121
1332.217469 -375.922716 -1041.816504
1330.385336 -375.794584 -1044.229887
1342.081603 -379.364770 -1073.708463
1340.221329 -379.234673 -1076.158872
1338.361055 -379.104575 -1078.609281
1336.500781 -378.974478 -1081.059690
1231.300378 -390.270932 -1523.857601
1229.249394 -390.127499 -1526.559180
1227.198640 -389.984074 -1529.260613
1225.147656 -389.840642 -1531.962192
1215.376910 -388.036071 -1526.546026
1213.337475 -387.893438 -1529.232544
1211.298027 -387.750812 -1531.918940
1209.258580 -387.608185 -1534.605336
1207.219133 -387.465558 -1537.291732
1205.179819 -387.322927 -1539.978237
1203.140372 -387.180300 -1542.664633
1201.100924 -387.037673 -1545.351029
1206.689723 -388.549779 -1556.275817
1204.638848 -388.406354 -1558.977262
1202.587985 -388.262922 -1561.678829
1200.537110 -388.119496 -1564.380274
1211.491334 -392.351322 -1606.473232
1209.405115 -392.205416 -1609.221406
1207.318775 -392.059509 -1611.969593
1205.232435 -391.913602 -1614.717781
1203.146203 -391.767702 -1617.465834
1201.059984 -391.621795 -1620.214008
1198.973644 -391.475888 -1622.962195
1196.887303 -391.329981 -1625.710382
1202.910329 -392.974378 -1637.725722
1200.811475 -392.827601 -1640.490298
1198.712633 -392.680817 -1643.254995
1196.613913 -392.534034 -1646.019679
1194.515058 -392.387257 -1648.784255
1200.463050 -394.026438 -1660.898413
1190.317483 -392.093697 -1654.313515
1194.129104 -393.583477 -1669.241658
1192.017870 -393.435824 -1672.022731
1189.906514 -393.288170 -1674.803816
1199.466163 -396.403109 -1702.109655
1197.329913 -396.253710 -1704.923627
1195.193541 -396.104309 -1707.737611
1193.057304 -395.954903 -1710.551704
1188.784683 -395.656103 -1716.179660
1186.648446 -395.506697 -1718.993753
1192.371324 -397.130114 -1731.404240
1190.222573 -396.979838 -1734.234721
1188.073821 -396.829562 -1737.065203
1185.924949 -396.679285 -1739.895697
1183.776197 -396.529008 -1742.726179
1181.627446 -396.378732 -1745.556660
1179.478573 -396.228455 -1748.387155
1193.187016 -401.060614 -1793.501824
1190.998709 -400.907566 -1796.384502
1188.810268 -400.754524 -1799.267071
1186.621961 -400.601477 -1802.149749
1184.433520 -400.448435 -1805.032318
1182.245200 -400.295394 -1807.914875
1180.056771 -400.142346 -1810.797566
1177.868464 -399.989299 -1813.680244
1385.159840 -360.575815 -618.115325
1383.549446 -360.463198 -620.236470
1381.939173 -360.350583 -622.357602
1391.442102 -363.191925 -644.752540
1389.809946 -363.077779 -646.902504
1388.177789 -362.963633 -649.052468
1386.545633 -362.849487 -651.202432
1384.913477 -362.735341 -653.352396
1383.281321 -362.621195 -655.502360
1388.530376 -363.713864 -660.225593
1386.891004 -363.599209 -662.385139
1386.883945 -365.879137 -698.969489
1385.221609 -365.762878 -701.159268
1383.559145 -365.646620 -703.348998
1375.139570 -364.332186 -702.802170
1373.484449 -364.216435 -704.982366
1371.829323 -364.100687 -707.162502
1376.909789 -365.181587 -712.107989
1375.247325 -365.065329 -714.297719
1373.584989 -364.949069 -716.487497
1371.922653 -364.832809 -718.677275
1381.274782 -367.041670 -731.295773
1379.596806 -366.924321 -733.506067
1377.918831 -366.806971 -735.716362
1376.240862 -366.689619 -737.926716
1374.562772 -366.572266 -740.137084
1372.884796 -366.454917 -742.347378
1371.206821 -366.337567 -744.557672
1376.169444 -367.410202 -749.658251
1374.484138 -367.292341 -751.878200
1372.798947 -367.174483 -754.098076
1371.113647 -367.056618 -756.318086
1369.428335 -366.938759 -758.537975
1367.743028 -366.820897 -760.757925
1373.597174 -368.059547 -766.346672
1371.903572 -367.941102 -768.577604
1370.209848 -367.822656 -770.808548
1368.516240 -367.704214 -773.039419
1366.822631 -367.585773 -775.270290
1365.129029 -367.467328 -777.501222
1372.350084 -369.527180 -792.926899
1370.640849 -369.407643 -795.178408
1368.931607 -369.288108 -797.429856
1374.661787 -370.518083 -803.181999
1365.513131 -369.049037 -801.932812
1363.803902 -368.929496 -804.184381
1362.094660 -368.809962 -806.435829
1364.356345 -369.797366 -816.756847
1370.019666 -371.022646 -822.596837
1368.293832 -370.901945 -824.870249
1359.203618 -369.437010 -823.544210
1357.486087 -369.316890 -825.806701
1363.116096 -370.539840 -831.690571
1361.390147 -370.419136 -833.964057
1359.664193 -370.298435 -836.237482
1357.938359 -370.177734 -838.510894
1356.212404 -370.057033 -840.784319
1354.486578 -369.936330 -843.057791
1360.058375 -371.155238 -849.018369
1358.324130 -371.033951 -851.302837
1358.895466 -372.732391 -877.150289
1365.260691 -374.110449 -883.728341
1363.500345 -373.987343 -886.047047
1361.740126 -373.864236 -888.365801
1359.979780 -373.741131 -890.684507
1358.219555 -373.618027 -893.003200
1356.459209 -373.494921 -895.321906
1361.919912 -375.535295 -914.728974
1360.142974 -375.411024 -917.069644
1358.366042 -375.286750 -919.410375
1356.589104 -375.162478 -921.751046
1350.292815 -375.655020 -945.007378
1348.506495 -375.530095 -947.360370
1346.720174 -375.405169 -949.713362
1344.933854 -375.280244 -952.066354
1343.147546 -375.155312 -954.419468
1341.361226 -375.030387 -956.772460
1346.564348 -376.223503 -963.218843
1344.769623 -376.097987 -965.582951
1342.975000 -375.972482 -967.946865
1341.180390 -375.846971 -970.310900
1349.596478 -378.301379 -989.149714
1347.783109 -378.174555 -991.538453
1345.969619 -378.047731 -993.927205
1344.156238 -377.920915 -996.315823
1342.342870 -377.794091 -998.704562
1340.529488 -377.667275 -1001.093180
1338.716120 -377.540451 -1003.481919
1336.902630 -377.413627 -1005.870671
1335.089249 -377.286811 -1008.259289
1340.988856 -378.632281 -1015.450551
1339.166099 -378.504807 -1017.851551
1337.343354 -378.377326 -1020.252673
1335.520597 -378.249852 -1022.653673
1333.697840 -378.122378 -1025.054674
1331.875095 -377.994897 -1027.455795
1337.709045 -379.335809 -1034.733493
1335.876911 -379.207678 -1037.146876
1332.212645 -378.951414 -1041.973642
1330.380512 -378.823283 -1044.387024
1343.936966 -382.570049 -1071.417482
1342.076705 -382.439945 -1073.868012
1340.216431 -382.309848 -1076.318421
1338.356157 -382.179750 -1078.768830
1336.495882 -382.049653 -1081.219239
1334.635608 -381.919556 -1083.669648
1332.775347 -381.789452 -1086.120178
1231.294977 -393.661204 -1524.033498
1229.243994 -393.517771 -1526.735077
1227.193240 -393.374346 -1529.436510
1225.142256 -393.230914 -1532.138089
1215.371540 -391.407387 -1526.720940
1213.332105 -391.264754 -1529.407457
1211.292657 -391.122127 -1532.093853
1209.253210 -390.979501 -1534.780249
1207.213762 -390.836874 -1537.466646
1205.174449 -390.694242 -1540.153150
1203.135002 -390.551616 -1542.839546
1201.095554 -390.408989 -1545.525943
1199.056107 -390.266363 -1548.212339
1204.633447 -391.796626 -1559.153160
1202.582585 -391.653194 -1561.854726
1200.531710 -391.509769 -1564.556171
1209.399622 -395.654203 -1609.400339
1207.313282 -395.508296 -1612.148526
1205.226941 -395.362389 -1614.896714
1203.140710 -395.216489 -1617.644767
1201.054491 -395.070582 -1620.392941
1198.968150 -394.924675 -1623.141128
1196.881810 -394.778768 -1625.889315
1202.904803 -396.443859 -1637.905728
1200.805948 -396.297081 -1640.670304
1198.707107 -396.150298 -1643.435001
1196.608386 -396.003515 -1646.199686
1194.509532 -395.856737 -1648.964262
1200.457491 -397.516551 -1661.079490
1198.346123 -397.368903 -1663.860455
1196.234901 -397.221244 -1666.641649
1194.123545 -397.073590 -1669.422735
1192.012310 -396.925937 -1672.203808
1189.900955 -396.778283 -1674.984893
1197.324288 -399.785149 -1705.106848
1195.187916 -399.635749 -1707.920832
1193.051679 -399.486343 -1710.734925
1190.915308 -399.336942 -1713.548910
1188.779058 -399.187542 -1716.362881
1186.642821 -399.038136 -1719.176974
1192.365666 -400.682217 -1731.588533
1190.216915 -400.531941 -1734.419014
1188.068163 -400.381664 -1737.249496
1185.919291 -400.231387 -1740.079990
1183.770539 -400.081111 -1742.910472
1181.621788 -399.930835 -1745.740954
1195.369574 -404.831191 -1790.806955
1193.181254 -404.678150 -1793.689512
1190.992947 -404.525102 -1796.572190
1188.804506 -404.372060 -1799.454759
1186.616199 -404.219013 -1802.337437
1184.427757 -404.065971 -1805.220007
1182.239438 -403.912930 -1808.102563
1180.051009 -403.759882 -1810.985254
1177.862702 -403.606834 -1813.867932
1395.381309 -364.690514 -616.421727
1386.765866 -363.350346 -616.132239
1385.155600 -363.237728 -618.253432
1383.545206 -363.125112 -620.374577
1381.934933 -363.012496 -622.495710
1394.702238 -366.118307 -640.592584
1393.070082 -366.004161 -642.742548
1391.437804 -365.890014 -644.892525
1389.805648 -365.775868 -647.042489
1388.173492 -365.661722 -649.192453
1386.541335 -365.547576 -651.342417
1384.909179 -365.433430 -653.492381
1383.277023 -365.319283 -655.642345
1381.644867 -365.205137 -657.792309
1380.012711 -365.090991 -659.942273
1378.380554 -364.976845 -662.092237
1386.879568 -368.627147 -699.112064
1385.217232 -368.510887 -701.301842
1376.790223 -367.183901 -700.764058
1375.135211 -367.068157 -702.944120
1373.480091 -366.952406 -705.124317
1371.824965 -366.836658 -707.304452
1376.905412 -367.929596 -712.250563
1375.242948 -367.813338 -714.440293
1373.580612 -367.697079 -716.630071
1371.918276 -367.580819 -718.819850
1381.270363 -369.815523 -731.439689
1379.592388 -369.698174 -733.649983
1377.914413 -369.580825 -735.860277
1376.236444 -369.463473 -738.070632
1374.558353 -369.346119 -740.281000
1372.880378 -369.228770 -742.491294
1371.202402 -369.111421 -744.701588
1376.165007 -370.196125 -749.802792
1374.479701 -370.078263 -752.022742
1372.794509 -369.960405 -754.242618
1371.109210 -369.842540 -756.462628
1369.423897 -369.724681 -758.682517
1367.738591 -369.606819 -760.902466
1366.053285 -369.488958 -763.122416
1371.899112 -370.740800 -768.722860
1370.205389 -370.622354 -770.953805
1368.511780 -370.503912 -773.184676
1366.818172 -370.385470 -775.415547
1365.124570 -370.267026 -777.646478
1372.345584 -372.352661 -793.073493
1370.636348 -372.233123 -795.325002
1368.927107 -372.113589 -797.576450
1367.217872 -371.994052 -799.827958
1365.508630 -371.874518 -802.079406
1363.799401 -371.754977 -804.330975
1369.504544 -372.996981 -810.116732
1371.741069 -373.996412 -820.471376
1370.015121 -373.875708 -822.744862
1368.289288 -373.755007 -825.018274
1359.199095 -372.276266 -823.691519
1357.481564 -372.156146 -825.954010
1361.385603 -373.272198 -834.112082
1359.659648 -373.151497 -836.385507
1357.933815 -373.030796 -838.658919
1356.207860 -372.910095 -840.932344
1354.482033 -372.789392 -843.205816
1360.053808 -374.022076 -849.167109
1364.143504 -375.994130 -870.381331
1362.392662 -375.871680 -872.687703
1358.890855 -375.626779 -877.300458
1357.139891 -375.504328 -879.606842
1355.389049 -375.381878 -881.913214
1361.735491 -376.774106 -888.516773
1354.694355 -376.281684 -897.791632
1356.552926 -377.254679 -908.644209
1354.784284 -377.130991 -910.973897
1353.015641 -377.007303 -913.303585
1351.246999 -376.883615 -915.633273
1349.478478 -376.759928 -917.962948
1340.612090 -375.296837 -916.341411
1338.851865 -375.173733 -918.660104
1344.172680 -376.388861 -924.952061
1350.288112 -378.607954 -945.160585
1348.501791 -378.483028 -947.513577
1346.715471 -378.358103 -949.866569
1344.929150 -378.233178 -952.219561
1343.142842 -378.108246 -954.572674
1341.356522 -377.983321 -956.925666
1346.559622 -379.190212 -963.372764
1344.764897 -379.064696 -965.736873
1342.970274 -378.939191 -968.100786
1341.175664 -378.813680 -970.464821
1349.591703 -381.299052 -989.305242
1347.778334 -381.172229 -991.693981
1345.964844 -381.045405 -994.082733
1344.151463 -380.918588 -996.471351
1342.338095 -380.791765 -998.860090
1340.524713 -380.664948 -1001.248708
1338.711345 -380.538125 -1003.637447
1336.897855 -380.411301 -1006.026199
1335.084474 -380.284484 -1008.414817
1337.338555 -381.390512 -1020.409006
1335.515797 -381.263038 -1022.810006
1333.693040 -381.135564 -1025.211006
1339.536354 -382.492609 -1032.477246
1337.704220 -382.364477 -1034.890629
1335.872087 -382.236345 -1037.304012
1334.039954 -382.108214 -1039.717395
1332.207821 -381.980082 -1042.130778
1345.792342 -385.775291 -1069.126620
1343.932068 -385.645194 -1071.577029
1342.071806 -385.515090 -1074.027559
1340.211532 -385.384993 -1076.477968
1338.351258 -385.254895 -1078.928377
1336.490984 -385.124798 -1081.378786
1334.630710 -384.994700 -1083.829195
1231.289577 -397.051476 -1524.209395
1229.238593 -396.908043 -1526.910974
1227.187840 -396.764619 -1529.612407
1225.136856 -396.621186 -1532.313986
1215.366170 -394.778733 -1526.895855
1213.326735 -394.636100 -1529.582372
1211.287287 -394.493474 -1532.268768
1209.247840 -394.350847 -1534.955165
1207.208392 -394.208220 -1537.641561
1205.169079 -394.065588 -1540.328065
1203.129632 -393.922962 -1543.014462
1201.090184 -393.780335 -1545.700858
1199.050737 -393.637709 -1548.387254
1204.628047 -395.186898 -1559.329057
1202.577185 -395.043466 -1562.030623
1200.526310 -394.900041 -1564.732068
1198.475447 -394.756609 -1567.433635
1196.424585 -394.613177 -1570.135201
1209.394128 -399.103021 -1609.579274
1207.307788 -398.957114 -1612.327461
1205.221448 -398.811206 -1615.075648
1203.135216 -398.665306 -1617.823701
1201.048997 -398.519400 -1620.571876
1198.962657 -398.373493 -1623.320063
1196.876316 -398.227586 -1626.068250
1202.899276 -399.913309 -1638.085734
1200.800422 -399.766532 -1640.850309
1198.701580 -399.619748 -1643.615006
1196.602860 -399.472965 -1646.379691
1194.504005 -399.326188 -1649.144267
1200.451932 -401.006695 -1661.260569
1198.340563 -400.859047 -1664.041533
1196.229341 -400.711388 -1666.822728
1194.117986 -400.563734 -1669.603813
1192.006751 -400.416081 -1672.384886
1189.895395 -400.268427 -1675.165972
1197.318663 -403.316589 -1705.290069
1195.182291 -403.167188 -1708.104054
1193.046054 -403.017782 -1710.918147
1190.909683 -402.868381 -1713.732131
1188.773433 -402.718982 -1716.546103
1186.637195 -402.569576 -1719.360196
1192.360008 -404.234350 -1731.772828
1190.211257 -404.084074 -1734.603309
1188.062505 -403.933797 -1737.433791
1185.913633 -403.783520 -1740.264285
1183.764881 -403.633244 -1743.094767
1181.616130 -403.482968 -1745.925248
1195.363811 -408.448726 -1790.994643
1193.175492 -408.295685 -1793.877200
1190.987184 -408.142638 -1796.759878
1188.798743 -407.989596 -1799.642447
1186.610436 -407.836549 -1802.525125
1184.421995 -407.683507 -1805.407695
1182.233675 -407.530466 -1808.290252
1180.045247 -407.377418 -1811.172942
1177.856940 -407.224370 -1814.055620
1386.761625 -366.012290 -616.270349
1385.151359 -365.899671 -618.391542
1383.540966 -365.787055 -620.512687
1394.697940 -368.816396 -640.732568
1393.065784 -368.702250 -642.882532
1391.433506 -368.588103 -645.032509
1389.801350 -368.473957 -647.182473
1388.169194 -368.359811 -649.332437
1386.537038 -368.245664 -651.482402
1384.904882 -368.131518 -653.632366
1383.272725 -368.017372 -655.782330
1381.640569 -367.903226 -657.932294
1380.008413 -367.789080 -660.082258
1378.376257 -367.674934 -662.232222
1385.212855 -371.258927 -701.444418
1376.785865 -369.919873 -700.906008
1375.130853 -369.804128 -703.086070
1373.475733 -369.688377 -705.266267
1371.820607 -369.572629 -707.446402
1376.901035 -370.677636 -712.393140
1375.238571 -370.561378 -714.582870
1373.576235 -370.445118 -716.772648
1371.913899 -370.328859 -718.962426
1381.265945 -372.589377 -731.583604
1379.587970 -372.472028 -733.793898
1377.909994 -372.354679 -736.004193
1376.232025 -372.237326 -738.214548
1374.553935 -372.119973 -740.424915
1379.531188 -373.217737 -745.507494
1377.845875 -373.099878 -747.727383
1376.160569 -372.982016 -749.947332
1374.475263 -372.864155 -752.167282
1372.790072 -372.746297 -754.387158
1371.104772 -372.628432 -756.607168
1369.419460 -372.510573 -758.827057
1367.734153 -372.392711 -761.047006
1366.048847 -372.274849 -763.266956
1371.894653 -373.540467 -768.868115
1370.200929 -373.422021 -771.099059
1368.507321 -373.303579 -773.329930
1366.813712 -373.185138 -775.560801
1365.120110 -373.066693 -777.791733
1372.341083 -375.178172 -793.220089
1370.631848 -375.058635 -795.471598
1368.922606 -374.939101 -797.723045
1367.213371 -374.819563 -799.974554
1365.504129 -374.700029 -802.226002
1363.794901 -374.580488 -804.477571
1362.085659 -374.460954 -806.729018
1364.347300 -375.475908 -817.051466
1370.010577 -376.728770 -822.892887
1368.284743 -376.608069 -825.166299
1359.194573 -375.115553 -823.838829
1357.477041 -374.995433 -826.101320
1355.759389 -374.875311 -828.363823
1361.381058 -376.125260 -834.260107
1359.655104 -376.004559 -836.533532
1357.929270 -375.883859 -838.806944
1356.203315 -375.763157 -841.080369
1354.477488 -375.642454 -843.353841
1360.049242 -376.888913 -849.315849
1358.314997 -376.767626 -851.600317
1362.388051 -378.766068 -872.837872
1360.637087 -378.643617 -875.144256
1358.886245 -378.521167 -877.450628
1357.135281 -378.398716 -879.757012
1355.384439 -378.276266 -882.063383
1353.633468 -378.153819 -884.369706
1360.085425 -380.425704 -904.136472
1358.316790 -380.302012 -906.466221
1356.548269 -380.178325 -908.795896
1354.779627 -380.054637 -911.125584
1353.010984 -379.930949 -913.455272
1351.242342 -379.807261 -915.784960
1349.473821 -379.683573 -918.114636
1340.607455 -378.206707 -916.492383
1338.847230 -378.083603 -918.811076
1344.168023 -379.312507 -925.103748
1352.069722 -381.685816 -942.960739
1350.283408 -381.560888 -945.313791
1348.497088 -381.435962 -947.666784
1346.710767 -381.311037 -950.019776
1344.924447 -381.186111 -952.372768
1350.144129 -382.407938 -958.798737
1348.349519 -382.282426 -961.162772
1346.554896 -382.156921 -963.526686
1344.760171 -382.031406 -965.890794
1342.965549 -381.905900 -968.254708
1341.170939 -381.780389 -970.618743
1343.593571 -382.913705 -982.391361
1349.586928 -384.296756 -989.460771
1347.773559 -384.169932 -991.849511
1345.960069 -384.043108 -994.238262
1344.146688 -383.916292 -996.626880
1342.333320 -383.789468 -999.015620
1340.519938 -383.662652 -1001.404238
1338.706570 -383.535828 -1003.792977
1336.893080 -383.409004 -1006.181729
1346.860184 -386.033834 -1022.980840
1345.028051 -385.905703 -1025.394223
1343.195796 -385.777570 -1027.807618
1341.363663 -385.649439 -1030.221001
1339.531529 -385.521307 -1032.634384
1337.699396 -385.393175 -1035.047767
1335.867263 -385.265044 -1037.461150
1341.673156 -386.634949 -1044.777589
1345.787444 -388.850466 -1069.286169
1343.927169 -388.720369 -1071.736578
1342.066908 -388.590265 -1074.187108
1340.206634 -388.460168 -1076.637517
1338.346360 -388.330070 -1079.087926
1344.020938 -389.690827 -1086.577236
1342.151288 -389.560073 -1089.040028
1340.281638 -389.429318 -1091.502819
1338.411987 -389.298563 -1093.965610
1336.542337 -389.167808 -1096.428402
1229.233193 -400.298315 -1527.086871
1227.182439 -400.154891 -1529.788304
1225.131456 -400.011458 -1532.489883
1223.080580 -399.868032 -1535.191328
1213.321365 -398.007416 -1529.757286
1211.281917 -397.864789 -1532.443682
1209.242470 -397.722163 -1535.130078
1207.203022 -397.579536 -1537.816474
1205.163709 -397.436904 -1540.502979
1203.124261 -397.294278 -1543.189375
1208.724384 -398.864028 -1554.101942
1206.673522 -398.720596 -1556.803509
1204.622647 -398.577170 -1559.504954
1202.571784 -398.433739 -1562.206520
1200.520909 -398.290313 -1564.907965
1198.470047 -398.146881 -1567.609532
1196.419185 -398.003449 -1570.311098
1209.388635 -402.551808 -1609.758207
1207.302295 -402.405901 -1612.506394
1205.215954 -402.259994 -1615.254581
1203.129723 -402.114093 -1618.002634
1201.043504 -401.968187 -1620.750809
1198.957163 -401.822280 -1623.498996
1196.870823 -401.676373 -1626.247183
1202.893750 -403.382790 -1638.265740
1200.794896 -403.236012 -1641.030316
1198.696054 -403.089229 -1643.795013
1196.597333 -402.942446 -1646.559697
1194.498479 -402.795668 -1649.324273
1200.446372 -404.496808 -1661.441646
1198.335004 -404.349161 -1664.222611
1196.223782 -404.201501 -1667.003805
1194.112426 -404.053848 -1669.784891
1192.001192 -403.906194 -1672.565964
1189.889836 -403.758541 -1675.347049
1199.449287 -406.997458 -1702.659321
1197.313037 -406.848059 -1705.473292
1195.176666 -406.698658 -1708.287277
1193.040429 -406.549252 -1711.101370
1190.904057 -406.399851 -1713.915354
1188.767807 -406.250452 -1716.729326
1186.631570 -406.101046 -1719.543418
1192.354350 -407.786453 -1731.957121
1190.205599 -407.636176 -1734.787603
1188.056847 -407.485900 -1737.618084
1185.907974 -407.335623 -1740.448579
1183.759223 -407.185347 -1743.279060
1181.610472 -407.035070 -1746.109542
1195.358049 -412.066293 -1791.182333
1193.169729 -411.913252 -1794.064890
1190.981422 -411.760204 -1796.947568
1188.792981 -411.607162 -1799.830137
1186.604674 -411.454115 -1802.712815
1184.416233 -411.301073 -1805.595385
1182.227913 -411.148032 -1808.477941
1180.039484 -410.994984 -1811.360632
1389.977930 -368.899464 -612.166193
1388.367651 -368.786852 -614.287265
1386.757385 -368.674234 -616.408458
1385.147119 -368.561615 -618.529651
1396.325799 -371.628631 -638.722589
1394.693643 -371.514485 -640.872553
1393.061486 -371.400339 -643.022517
1391.429209 -371.286192 -645.172494
1389.797053 -371.172046 -647.322458
1388.164896 -371.057899 -649.472422
1393.435784 -372.188272 -654.168760
1384.900584 -370.829607 -653.772350
1383.268428 -370.715461 -655.922314
1381.636271 -370.601315 -658.072279
1380.004115 -370.487169 -660.222243
1378.371959 -370.373023 -662.372207
1386.870813 -374.123196 -699.397215
1385.208477 -374.006936 -701.586993
1376.781507 -372.655844 -701.047958
1375.126495 -372.540100 -703.228021
1373.471375 -372.424348 -705.408217
1378.559000 -373.541902 -710.345997
1376.896657 -373.425645 -712.535714
1375.234194 -373.309388 -714.725444
1373.571858 -373.193128 -716.915222
1371.909522 -373.076868 -719.105000
1370.247179 -372.960611 -721.294718
1381.261527 -375.363230 -731.727520
1379.583551 -375.245881 -733.937814
1377.905576 -375.128532 -736.148108
1376.227607 -375.011180 -738.358463
1374.549516 -374.893826 -740.568831
1379.526750 -376.003659 -745.652036
1377.841438 -375.885801 -747.871925
1376.156132 -375.767939 -750.091874
1374.470825 -375.650077 -752.311824
1372.785634 -375.532219 -754.531700
1371.100334 -375.414354 -756.751710
1369.415022 -375.296495 -758.971599
1367.729716 -375.178633 -761.191548
1366.044410 -375.060772 -763.411497
1371.890193 -376.340134 -769.013370
1370.196470 -376.221688 -771.244314
1368.502861 -376.103246 -773.475185
1366.809253 -375.984805 -775.706056
1365.115651 -375.866360 -777.936988
1367.507377 -376.904195 -788.088633
1372.336582 -378.003683 -793.366685
1370.627347 -377.884146 -795.618193
1368.918106 -377.764612 -797.869641
1367.208870 -377.645074 -800.121149
1365.499629 -377.525540 -802.372597
1363.790400 -377.406000 -804.624166
1362.081158 -377.286466 -806.875614
1364.342777 -378.315195 -817.198776
1362.625246 -378.195075 -819.461267
1368.280199 -379.461132 -825.314324
1359.190050 -377.954840 -823.986140
1357.472519 -377.834719 -826.248630
1355.754866 -377.714598 -828.511134
1361.376514 -378.978322 -834.408132
1359.650559 -378.857621 -836.681557
1357.924726 -378.736921 -838.954969
1356.198771 -378.616220 -841.228394
1354.472944 -378.495516 -843.501867
1352.746995 -378.374812 -845.775352
1351.021041 -378.254111 -848.048777
1349.295207 -378.133411 -850.322189
1347.569253 -378.012710 -852.595614
1362.383441 -381.660426 -872.988040
1360.632477 -381.537975 -875.294424
1358.881635 -381.415525 -877.600795
1357.130671 -381.293074 -879.907179
1355.379828 -381.170624 -882.213551
1353.628858 -381.048176 -884.519874
1351.878015 -380.925726 -886.826246
1352.924860 -381.978321 -900.412270
1358.312133 -383.225658 -906.617908
1356.543612 -383.101971 -908.947583
1354.774970 -382.978283 -911.277271
1353.006327 -382.854594 -913.606959
1351.237685 -382.730906 -915.936647
1349.469164 -382.607219 -918.266323
1340.602820 -381.116578 -916.643356
1345.931886 -382.359840 -922.925760
1352.065019 -384.638719 -943.113944
1350.278704 -384.513791 -945.466997
1348.492384 -384.388865 -947.819989
1346.706063 -384.263940 -950.172981
1351.934020 -385.500125 -956.588683
1350.139404 -385.374617 -958.952657
1348.344794 -385.249105 -961.316692
1346.550171 -385.123600 -963.680606
1344.755446 -384.998084 -966.044714
1350.804925 -386.400554 -973.040767
1345.392814 -386.022062 -980.169729
1351.395534 -387.421246 -987.227681
1349.582153 -387.294429 -989.616299
1347.768784 -387.167606 -992.005039
1345.955294 -387.040782 -994.393790
1344.141913 -386.913965 -996.782408
1342.328545 -386.787142 -999.171148
1340.515164 -386.660325 -1001.559765
1338.701795 -386.533502 -1003.948505
1336.888305 -386.406678 -1006.337257
1348.687493 -389.190634 -1020.724593
1346.855360 -389.062502 -1023.137976
1345.023226 -388.934371 -1025.551359
1343.190972 -388.806238 -1027.964754
1341.358838 -388.678107 -1030.378137
1339.526705 -388.549975 -1032.791520
1337.694572 -388.421843 -1035.204903
1343.509817 -389.807918 -1042.509764
1341.668307 -389.679129 -1044.935530
1345.782545 -391.925642 -1069.445718
1343.922271 -391.795544 -1071.896127
1342.062010 -391.665440 -1074.346657
1347.755315 -393.042994 -1081.812006
1345.885665 -392.912240 -1084.274797
1344.016015 -392.781485 -1086.737588
1342.146365 -392.650730 -1089.200380
1340.276715 -392.519975 -1091.663171
1338.407064 -392.389220 -1094.125963
1229.227793 -403.688557 -1527.262767
1227.177039 -403.545132 -1529.964199
1225.126055 -403.401700 -1532.665778
1223.075180 -403.258274 -1535.367224
1213.315995 -401.378732 -1529.932200
1211.276547 -401.236105 -1532.618596
1209.237100 -401.093479 -1535.304992
1207.197652 -400.950852 -1537.991388
1205.158339 -400.808220 -1540.677893
1203.118891 -400.665593 -1543.364289
1208.718984 -402.254269 -1554.277838
1206.668122 -402.110838 -1556.979404
1204.617247 -401.967412 -1559.680849
1202.566384 -401.823980 -1562.382416
1200.515509 -401.680555 -1565.083861
1198.464647 -401.537123 -1567.785427
1196.413784 -401.393691 -1570.486994
1209.383142 -406.000625 -1609.937142
1207.296801 -405.854718 -1612.685329
1205.210461 -405.708811 -1615.433516
1203.124229 -405.562911 -1618.181569
1201.038010 -405.417005 -1620.929743
1198.951670 -405.271098 -1623.677931
1204.986957 -406.999016 -1635.681182
1202.888224 -406.852240 -1638.445745
1200.789369 -406.705463 -1641.210321
1198.690527 -406.558679 -1643.975018
1196.591807 -406.411896 -1646.739703
1194.492953 -406.265119 -1649.504278
1192.394219 -406.118342 -1652.268842
1190.295378 -405.971559 -1655.033539
1196.218223 -407.691645 -1667.184884
1194.106867 -407.543991 -1669.965969
1191.995632 -407.396338 -1672.747042
1189.884277 -407.248684 -1675.528128
1199.443662 -410.528898 -1702.842542
1197.307412 -410.379498 -1705.656514
1195.171041 -410.230098 -1708.470498
1193.034804 -410.080692 -1711.284591
1190.898432 -409.931291 -1714.098575
1188.762182 -409.781891 -1716.912547
1186.625945 -409.632485 -1719.726640
1192.348692 -411.338586 -1732.141416
1190.199940 -411.188309 -1734.971898
1188.051189 -411.038033 -1737.802379
1185.902316 -410.887756 -1740.632874
1183.753565 -410.737480 -1743.463355
1181.604814 -410.587204 -1746.293837
1183.564202 -412.138892 -1765.328780
1193.163967 -415.530787 -1794.252578
1190.975660 -415.377740 -1797.135256
1188.787219 -415.224698 -1800.017825
1186.598912 -415.071651 -1802.900503
1184.410470 -414.918609 -1805.783073
1182.222151 -414.765568 -1808.665629
1180.033722 -414.612520 -1811.548320
1389.973690 -371.561378 -612.304301
1388.363411 -371.448765 -614.425373
1386.753145 -371.336147 -616.546566
1385.142879 -371.223528 -618.667759
1392.624474 -373.294373 -632.092547
1397.953657 -374.440866 -636.712609
1396.321501 -374.326720 -638.862573
1394.689345 -374.212574 -641.012537
1393.057189 -374.098428 -643.162502
1391.424911 -373.984281 -645.312478
1389.792755 -373.870134 -647.462443
1388.160599 -373.755988 -649.612407
1386.528442 -373.641842 -651.762371
1384.896286 -373.527696 -653.912335
1383.264130 -373.413550 -656.062299
1381.631974 -373.299404 -658.212263
1379.999817 -373.185257 -660.362227
1378.367661 -373.071111 -662.512191
1386.866436 -376.871236 -699.539791
1385.204100 -376.754976 -701.729569
1376.777149 -375.391815 -701.189908
1375.122137 -375.276071 -703.369971
1373.467017 -375.160320 -705.550167
1378.554622 -376.289942 -710.488573
1376.892280 -376.173685 -712.678290
1375.229816 -376.057428 -714.868021
1373.567480 -375.941168 -717.057799
1371.905145 -375.824908 -719.247577
1370.242802 -375.708651 -721.437294
1381.257108 -378.137084 -731.871435
1379.579133 -378.019735 -734.081730
1377.901157 -377.902386 -736.292024
1376.223188 -377.785033 -738.502379
1381.207613 -378.907416 -743.576566
1379.522313 -378.789551 -745.796576
1377.837000 -378.671692 -748.016465
1376.151694 -378.553830 -750.236414
1374.466388 -378.435969 -752.456364
1372.781197 -378.318111 -754.676240
1371.095897 -378.200246 -756.896250
1369.410584 -378.082387 -759.116139
1367.725278 -377.964525 -761.336088
1366.039972 -377.846663 -763.556038
1371.885733 -379.139831 -769.158626
1370.192010 -379.021386 -771.389571
1368.498402 -378.902944 -773.620442
1366.804793 -378.784502 -775.851313
1365.111191 -378.666057 -778.082244
1375.750552 -381.068269 -789.010264
1374.041323 -380.948729 -791.261833
1372.332082 -380.829195 -793.513280
1370.622846 -380.709657 -795.764789
1368.913605 -380.590123 -798.016237
1367.204370 -380.470586 -800.267745
1365.495128 -380.351051 -802.519193
1369.490976 -381.514841 -810.558663
1366.055786 -381.274602 -815.083596
1364.338255 -381.154482 -817.346087
1362.620724 -381.034361 -819.608577
1368.275654 -382.314194 -825.462349
1359.185527 -380.794126 -824.133450
1357.467996 -380.674006 -826.395941
1355.750344 -380.553885 -828.658444
1361.371969 -381.831384 -834.556157
1359.646014 -381.710683 -836.829582
1357.920181 -381.589983 -839.102994
1356.194226 -381.469282 -841.376419
1354.468399 -381.348578 -843.649892
1352.742451 -381.227874 -845.923377
1351.016496 -381.107173 -848.196802
1349.290663 -380.986473 -850.470214
1347.564708 -380.865772 -852.743639
1355.139596 -383.164190 -869.371223
1360.627867 -384.432363 -875.444593
1358.877024 -384.309913 -877.750964
1357.126060 -384.187462 -880.057348
1355.375218 -384.065012 -882.363720
1353.624248 -383.942565 -884.670043
1351.873405 -383.820114 -886.976415
1350.122441 -383.697664 -889.282799
1360.076111 -386.273026 -904.439848
1358.307476 -386.149334 -906.769596
1356.538955 -386.025647 -909.099272
1354.770313 -385.901959 -911.428960
1353.001670 -385.778271 -913.758648
1351.233028 -385.654583 -916.088336
1349.464507 -385.530895 -918.418012
1347.695865 -385.407207 -920.747700
1345.927229 -385.283516 -923.077448
1355.632956 -387.841504 -938.561166
1353.846635 -387.716578 -940.914158
1352.060315 -387.591653 -943.267151
1350.274001 -387.466724 -945.620203
1348.487680 -387.341799 -947.973195
1353.724026 -388.592346 -954.378557
1351.929295 -388.466834 -956.742604
1350.134678 -388.341326 -959.106578
1348.340068 -388.215814 -961.470613
1346.545445 -388.090309 -963.834527
1352.604167 -389.508911 -970.819135
1350.800175 -389.382745 -973.195492
1347.192056 -389.130419 -977.948097
1345.388063 -389.004253 -980.324453
1351.390759 -390.418949 -987.383211
1349.577378 -390.292133 -989.771829
1347.764009 -390.165309 -992.160568
1345.950519 -390.038485 -994.549320
1344.137138 -389.911669 -996.937938
1342.323770 -389.784845 -999.326677
1340.510389 -389.658029 -1001.715295
1348.682669 -392.219332 -1020.881731
1346.850535 -392.091201 -1023.295114
1345.018402 -391.963069 -1025.708496
1343.186147 -391.834937 -1028.121892
1341.354014 -391.706805 -1030.535275
1339.521881 -391.578673 -1032.948658
1337.689747 -391.450542 -1035.362040
1343.504968 -392.852099 -1042.667705
1341.663458 -392.723310 -1045.093471
1339.821949 -392.594521 -1047.519236
1337.980440 -392.465732 -1049.945001
1345.777647 -395.000817 -1069.605267
1343.917373 -394.870719 -1072.055676
1342.057111 -394.740615 -1074.506206
1347.750392 -396.133652 -1081.972358
1345.880742 -396.002897 -1084.435149
1344.011092 -395.872142 -1086.897941
1342.141442 -395.741387 -1089.360732
1340.271792 -395.610632 -1091.823523
1338.402141 -395.479877 -1094.286315
1229.222393 -407.078829 -1527.438664
1227.171639 -406.935405 -1530.140096
1225.120655 -406.791972 -1532.841676
1223.069780 -406.648546 -1535.543121
1221.018918 -406.505115 -1538.244687
1211.271177 -404.607421 -1532.793509
1209.231730 -404.464794 -1535.479905
1207.192282 -404.322168 -1538.166302
1205.152969 -404.179536 -1540.852806
1210.764567 -405.787974 -1551.752156
1208.713584 -405.644542 -1554.453735
1206.662721 -405.501110 -1557.155301
1204.611846 -405.357684 -1559.856746
1202.560984 -405.214252 -1562.558313
1200.510109 -405.070827 -1565.259758
1198.459246 -404.927395 -1567.961324
1196.408384 -404.783963 -1570.662891
1207.291308 -409.303536 -1612.864263
1205.204967 -409.157629 -1615.612450
1203.118735 -409.011729 -1618.360504
1201.032517 -408.865822 -1621.108678
1198.946176 -408.719915 -1623.856865
1204.981430 -410.468497 -1635.861189
1202.882697 -410.321721 -1638.625752
1200.783843 -410.174943 -1641.390328
1198.685001 -410.028160 -1644.155025
1196.586281 -409.881377 -1646.919709
1194.487426 -409.734599 -1649.684285
1192.388693 -409.587823 -1652.448848
1190.289851 -409.441039 -1655.213545
1196.212664 -411.181759 -1667.365961
1194.101308 -411.034105 -1670.147046
1191.990073 -410.886452 -1672.928119
1189.878717 -410.738798 -1675.709205
1199.438037 -414.060368 -1703.025765
1197.301787 -413.910968 -1705.839736
1195.165416 -413.761568 -1708.653721
1193.029179 -413.612162 -1711.467814
1198.789409 -415.341518 -1723.834252
1196.640658 -415.191242 -1726.664734
1194.491907 -415.040965 -1729.495215
