# .PCD v.7 - Point Cloud Data file format
VERSION .7
FIELDS x y z
SIZE 4 4 4
TYPE F F F
COUNT 1 1 1
WIDTH 1389
HEIGHT 1
POINTS 1389
DATA ascii
1521.484354 59.043000 -1562.406147
1220.190839 63.765974 -1734.698509
1218.002411 63.919022 -1737.581200
1180.800105 66.520777 -1786.585736
1178.611798 66.673824 -1789.468414
1176.423478 66.826865 -1792.350971
1174.235037 66.979907 -1795.233540
1163.812150 66.146153 -1787.495341
1161.637419 66.298247 -1790.360048
1141.530331 64.699279 -1775.561968
1139.381567 64.849549 -1778.392328
1137.232694 64.999826 -1781.222822
1135.083943 65.150102 -1784.053304
1125.421632 64.383360 -1776.964651
1123.285382 64.532760 -1779.778623
1121.149011 64.682161 -1782.592607
1111.536840 63.911926 -1775.438023
1109.412970 64.060450 -1778.235497
1091.393026 63.878206 -1782.155956
1089.281792 64.025859 -1784.937029
1079.794442 63.246879 -1777.617857
1077.695601 63.393662 -1780.382554
1075.596746 63.540440 -1783.147130
1066.159428 62.757966 -1775.762160
1064.073209 62.903872 -1778.510334
1055.282816 62.196353 -1771.924354
1053.208025 62.341461 -1774.657480
881.604327 70.255606 -1944.555322
879.564940 70.398232 -1947.241712
877.525493 70.540859 -1949.928108
875.486106 70.683485 -1952.614498
867.647801 69.909389 -1944.774536
859.832291 69.133696 -1936.904483
852.039732 68.356391 -1929.004076
850.034689 68.496620 -1931.645312
848.029633 68.636842 -1934.286427
840.804962 67.940041 -1927.289518
838.810308 68.079535 -1929.916918
836.815653 68.219029 -1932.544317
834.821012 68.358530 -1935.171837
832.826406 68.498017 -1937.799109
825.147327 67.712786 -1929.749399
808.143246 67.699913 -1935.634431
806.170408 67.837874 -1938.232944
798.604967 67.044702 -1930.033669
796.643618 67.181863 -1932.617126
789.618936 66.471074 -1925.356920
782.614985 65.758831 -1918.069167
780.674561 65.894535 -1920.625181
778.734076 66.030240 -1923.181201
776.793604 66.165951 -1925.737343
769.841662 65.450067 -1918.381011
767.911592 65.585049 -1920.923437
760.991037 64.866976 -1913.525939
751.392826 65.538222 -1926.168984
744.545206 64.815054 -1918.675463
742.636000 64.948580 -1921.190451
740.726794 65.082106 -1923.705439
1692.713393 61.581014 -1593.021805
1677.854148 60.724444 -1586.171873
1675.379281 60.897523 -1589.431848
1623.011271 58.754147 -1577.492287
1609.117644 57.948536 -1571.021911
1606.709521 58.116955 -1574.194113
1604.301386 58.285367 -1577.366192
1590.470279 57.475380 -1570.813389
1588.077783 57.642703 -1573.964952
1585.685274 57.810020 -1577.116395
1557.421956 56.113609 -1563.151378
1555.061678 56.278670 -1566.260340
1542.127515 55.524443 -1560.177520
1539.781912 55.688486 -1563.267293
1521.478219 55.191290 -1562.605985
1180.794343 62.903234 -1786.773425
1178.606035 63.056281 -1789.656103
1176.417716 63.209322 -1792.538659
1174.229275 63.362364 -1795.421229
1163.806424 62.550995 -1787.681868
1161.631692 62.703088 -1790.546575
1141.524673 61.147161 -1775.746262
1139.375909 61.297431 -1778.576622
1137.227036 61.447708 -1781.407116
1135.078285 61.597984 -1784.237598
1132.929546 61.748267 -1787.068201
1123.279757 61.001305 -1779.961845
1121.143386 61.150706 -1782.775829
1119.007149 61.300112 -1785.589922
1083.986369 59.483854 -1772.268615
1081.887649 59.630637 -1775.033299
1079.788916 59.777413 -1777.797863
1077.690074 59.924197 -1780.562560
1075.591220 60.070974 -1783.327136
1066.153934 59.309164 -1775.941093
1064.067715 59.455070 -1778.689268
1055.277353 58.766492 -1772.102305
1053.202562 58.911600 -1774.835431
879.559570 67.026909 -1947.416626
877.520123 67.169535 -1950.103022
875.480736 67.312161 -1952.789412
867.642462 66.557007 -1944.948468
859.826982 65.800251 -1937.077431
857.810498 65.941273 -1939.733596
850.029409 65.182116 -1931.817278
848.024354 65.322339 -1934.458393
846.019310 65.462568 -1937.099630
838.805055 64.782247 -1930.087990
836.810401 64.921741 -1932.715390
829.108450 64.157055 -1924.694922
827.125332 64.295743 -1927.307138
825.142105 64.434439 -1929.919489
806.165214 64.576743 -1938.402141
798.599803 63.802511 -1930.201883
796.638453 63.939673 -1932.785341
789.613799 63.246107 -1925.524241
787.662865 63.382547 -1928.094104
780.669451 62.686787 -1920.791608
778.728967 62.822492 -1923.347629
771.766663 62.124558 -1916.004241
769.836580 62.259534 -1918.546545
762.905651 61.559408 -1911.161870
751.387772 62.364909 -1926.333625
744.540179 61.658956 -1918.839211
742.630973 61.792482 -1921.354199
724.906125 61.965708 -1929.839002
1692.706832 57.462421 -1593.235490
1690.215361 57.636660 -1596.517308
1623.004889 54.747472 -1577.700165
1620.581127 54.916980 -1580.892882
1606.703180 54.136108 -1574.400650
1604.295045 54.304521 -1577.572730
1601.886910 54.472933 -1580.744810
1588.071483 53.687685 -1574.170150
1585.678974 53.855002 -1577.321593
1557.415741 52.211963 -1563.353806
1555.055463 52.377025 -1566.462768
1542.121338 51.646904 -1560.378698
1539.775735 51.810947 -1563.468471
1521.472083 51.339580 -1562.805823
1180.788580 59.285690 -1786.961113
1178.600273 59.438737 -1789.843791
1176.411953 59.591779 -1792.726348
1174.223512 59.744820 -1795.608917
1172.035084 59.897869 -1798.491608
1161.625965 59.107930 -1790.733103
1159.451125 59.260030 -1793.597944
1139.370251 57.745321 -1778.760916
1137.221378 57.895598 -1781.591410
1127.546753 57.171058 -1774.517110
1125.410382 57.320459 -1777.331095
1123.274132 57.469858 -1780.145067
1121.137761 57.619259 -1782.959051
1119.001523 57.768665 -1785.773144
1109.401785 57.038867 -1778.599797
1091.381907 56.897945 -1782.518113
1089.270673 57.045598 -1785.299186
1079.783390 56.307944 -1777.977869
1077.684548 56.454728 -1780.742566
1075.585693 56.601505 -1783.507142
1066.148441 55.860358 -1776.120027
1064.062222 56.006264 -1778.868202
1055.271890 55.336627 -1772.280257
1053.197098 55.481735 -1775.013382
1051.122185 55.626843 -1777.746520
879.554200 63.655585 -1947.591540
877.514753 63.798212 -1950.277936
875.475366 63.940838 -1952.964326
867.637122 63.204621 -1945.122399
859.821672 62.466810 -1937.250380
857.805188 62.607831 -1939.906544
850.024130 61.867613 -1931.989244
848.019074 62.007835 -1934.630359
846.014031 62.148064 -1937.271596
838.799803 61.484962 -1930.259063
836.805149 61.624457 -1932.886462
829.103228 60.878712 -1924.865012
827.120110 61.017400 -1927.477228
825.136883 61.156095 -1930.089579
823.153718 61.294790 -1932.701923
806.160019 61.315619 -1938.571338
798.594638 60.560325 -1930.370097
796.633289 60.697486 -1932.953555
789.608662 60.021140 -1925.691562
787.657728 60.157579 -1928.261425
785.706841 60.294012 -1930.831161
778.723857 59.614740 -1923.514056
771.761581 58.934025 -1916.169775
769.831498 59.069001 -1918.712079
762.900596 58.386094 -1911.326510
753.302398 59.057347 -1923.969677
751.382717 59.191595 -1926.498265
744.535151 58.502862 -1919.002958
726.800965 58.692245 -1927.499461
724.901122 58.825107 -1930.001945
1692.700272 53.343828 -1593.449174
1690.208800 53.518067 -1596.730993
1622.998507 50.740796 -1577.908043
1620.574745 50.910304 -1581.100760
1606.696839 50.155261 -1574.607188
1604.288704 50.323674 -1577.779268
1590.457679 49.565336 -1571.223784
1588.065183 49.732660 -1574.375348
1585.672674 49.899976 -1577.526791
1571.145666 49.075281 -1570.236519
1557.409526 48.310325 -1563.556234
1555.049249 48.475386 -1566.665196
1542.115162 47.769365 -1560.579876
1539.769559 47.933408 -1563.669649
1176.406191 55.974239 -1792.914036
1174.217750 56.127281 -1795.796606
1172.029322 56.280329 -1798.679297
1169.841002 56.433370 -1801.561853
1159.445398 55.664868 -1793.784471
1139.364593 54.193206 -1778.945210
1137.215720 54.343484 -1781.775704
1127.541128 53.639603 -1774.700333
1125.404757 53.789004 -1777.514317
1123.268507 53.938403 -1780.328289
1121.132136 54.087804 -1783.142273
1118.995898 54.237210 -1785.956366
1109.396193 53.528075 -1778.781947
1081.876596 52.691702 -1775.393311
1079.777863 52.838479 -1778.157875
1077.679021 52.985262 -1780.922572
1075.580167 53.132040 -1783.687147
1066.142947 52.411555 -1776.298961
1064.056728 52.557461 -1779.047136
1061.970497 52.703361 -1781.795189
1059.884156 52.849269 -1784.543376
1051.116722 52.196978 -1777.924471
1049.041918 52.342079 -1780.657475
879.548830 60.284262 -1947.766454
877.509383 60.426889 -1950.452850
875.469996 60.569515 -1953.139240
867.631782 59.852239 -1945.296330
859.816362 59.133365 -1937.423329
857.799878 59.274387 -1940.079493
855.783395 59.415408 -1942.735657
853.766863 59.556436 -1945.391949
846.008751 58.833560 -1937.443562
838.794551 58.187678 -1930.430136
836.799897 58.327172 -1933.057535
829.098006 57.600365 -1925.035102
810.100353 57.778557 -1933.543278
808.127662 57.916530 -1936.142021
806.154825 58.054491 -1938.740535
798.589474 57.318138 -1930.538311
796.628125 57.455299 -1933.121769
789.603525 56.796172 -1925.858882
787.652591 56.932612 -1928.428746
780.659232 56.271283 -1921.124463
778.718747 56.406988 -1923.680483
771.756498 55.743492 -1916.335309
769.826416 55.878469 -1918.877613
753.297343 55.884033 -1924.134317
746.439343 55.213244 -1916.651839
728.695853 55.418779 -1925.159793
726.795962 55.551648 -1927.662404
724.896120 55.684510 -1930.164888
1692.693711 49.225235 -1593.662859
1690.202240 49.399474 -1596.944677
1620.568363 46.903629 -1581.308638
1606.690499 46.174415 -1574.813726
1604.282363 46.342827 -1577.985806
1590.451379 45.610319 -1571.428982
1588.058883 45.777642 -1574.580546
1585.666375 45.944959 -1577.731989
1571.139410 45.147810 -1570.440287
1557.403311 44.408679 -1563.758663
1555.043034 44.573741 -1566.867625
1542.108985 43.891826 -1560.781054
1539.763382 44.055869 -1563.870827
1174.211988 52.509737 -1795.984294
1172.023559 52.662786 -1798.866985
1169.835239 52.815827 -1801.749542
1159.439671 52.069706 -1793.970999
1157.264818 52.221800 -1796.835718
1139.358935 50.641089 -1779.129504
1137.210062 50.791366 -1781.959998
1135.061311 50.941642 -1784.790480
1123.262882 50.406953 -1780.511510
1121.126510 50.556353 -1783.325495
1118.990273 50.705759 -1786.139588
1109.390601 50.017284 -1778.964097
1107.266756 50.165820 -1781.761814
1105.143008 50.314344 -1784.559276
1093.482023 49.770035 -1780.099195
1083.969790 49.075454 -1772.808633
1081.871070 49.222237 -1775.573317
1079.772337 49.369013 -1778.337880
1077.673495 49.515797 -1781.102578
1068.223794 48.816842 -1773.729708
1066.137454 48.962749 -1776.477895
1057.335767 48.331796 -1769.903155
1055.260963 48.476897 -1772.636159
1059.878663 49.400462 -1784.722310
1051.111259 48.767113 -1778.102423
879.543460 56.912939 -1947.941368
877.504013 57.055565 -1950.627764
875.464626 57.198191 -1953.314154
867.626442 56.499857 -1945.470262
865.598470 56.641677 -1948.141481
857.794569 55.940942 -1940.252442
855.778085 56.081963 -1942.908606
853.761554 56.222991 -1945.564897
846.003472 55.519057 -1937.615528
838.789299 54.890393 -1930.601208
836.794645 55.029888 -1933.228608
829.092784 54.322022 -1925.205192
808.122468 54.655402 -1936.311218
806.149630 54.793363 -1938.909731
798.584309 54.075951 -1930.706525
796.622960 54.213113 -1933.289983
789.598388 53.571201 -1926.026203
787.647454 53.707641 -1928.596066
780.654123 53.063535 -1921.290891
778.713638 53.199240 -1923.846911
771.751416 52.552960 -1916.500843
769.821333 52.687936 -1919.043147
762.890487 52.039467 -1911.655792
760.970818 52.173722 -1914.184502
755.211909 52.576472 -1921.770376
753.292289 52.710720 -1924.298958
746.434315 52.057150 -1916.815586
728.690850 52.278178 -1925.322736
726.790960 52.411047 -1927.825348
724.891117 52.543910 -1930.327832
1692.687151 45.106642 -1593.876543
1690.195680 45.280881 -1597.158362
1622.985743 42.727449 -1578.323798
1620.561980 42.896957 -1581.516516
1618.138218 43.066465 -1584.709233
1604.276022 42.361977 -1578.192344
1601.867887 42.530389 -1581.364424
1588.052583 41.822624 -1574.785744
1573.509058 41.054182 -1567.514457
1571.133154 41.220339 -1570.644056
1557.397096 40.507033 -1563.961092
1555.036819 40.672095 -1567.070054
1542.102809 40.014288 -1560.982232
1539.757206 40.178330 -1564.072005
1174.206225 48.892194 -1796.171983
1172.017797 49.045242 -1799.054674
1169.829477 49.198283 -1801.937230
1167.641170 49.351331 -1804.819908
1157.259092 48.626642 -1797.022246
1139.353277 47.088974 -1779.313798
1137.204404 47.239252 -1782.144292
1135.055653 47.389528 -1784.974774
1118.984648 47.174304 -1786.322810
1109.385009 46.506492 -1779.146247
1107.261164 46.655029 -1781.943964
1105.137416 46.803552 -1784.741426
1103.013680 46.952081 -1787.539009
1093.476464 46.279906 -1780.280273
1083.964264 45.605984 -1772.988639
1081.865543 45.752767 -1775.753323
1079.766810 45.899544 -1778.517887
1077.667969 46.046327 -1781.282584
1068.218301 45.368036 -1773.908642
1066.131960 45.513943 -1776.656829
1057.330304 44.901931 -1770.081106
1055.255500 45.047032 -1772.814110
1059.873169 45.951656 -1784.901244
1051.105795 45.337248 -1778.280374
897.676570 53.500652 -1942.393097
895.625647 53.644084 -1945.094670
879.538090 53.541615 -1948.116282
877.498643 53.684242 -1950.802678
869.649048 53.005637 -1942.972731
867.621102 53.147471 -1945.644193
865.593130 53.289291 -1948.315412
857.789259 52.607501 -1940.425390
855.772775 52.748522 -1943.081554
848.003235 52.064324 -1935.146257
845.998192 52.204553 -1937.787494
843.993136 52.344775 -1940.428609
836.789393 51.732603 -1933.399680
806.144436 51.532235 -1939.078928
798.579145 50.833765 -1930.874739
796.617796 50.970926 -1933.458197
789.593251 50.346234 -1926.193524
787.642317 50.482673 -1928.763387
780.649013 49.855783 -1921.457318
778.708528 49.991488 -1924.013338
776.768056 50.127199 -1926.569479
769.816251 49.497403 -1919.208681
762.885432 48.866150 -1911.820433
760.965764 49.000405 -1914.349142
759.046130 49.134646 -1916.877603
757.126523 49.268900 -1919.406307
750.247725 48.634016 -1911.949601
748.338507 48.767536 -1914.464467
746.429288 48.901056 -1916.979334
728.685848 49.137578 -1925.485679
726.785957 49.270447 -1927.988291
724.886115 49.403309 -1930.490775
1692.680591 40.988049 -1594.090228
1690.189119 41.162288 -1597.372046
1622.979360 38.720773 -1578.531676
1620.555598 38.890281 -1581.724393
1618.131836 39.059789 -1584.917111
1604.269681 38.381130 -1578.398882
1601.861546 38.549542 -1581.570962
1588.046284 37.867602 -1574.990942
1573.502802 37.126711 -1567.718225
1571.126898 37.292868 -1570.847824
1557.390882 36.605391 -1564.163520
1555.030604 36.770453 -1567.272482
1542.096633 36.136749 -1561.183410
1539.751030 36.300791 -1564.273183
1174.200463 45.274651 -1796.359672
1172.012035 45.427699 -1799.242362
1169.823715 45.580740 -1802.124919
1159.428218 44.879389 -1794.344053
1157.253365 45.031483 -1797.208773
1139.347619 43.536860 -1779.498092
1137.198746 43.687138 -1782.328586
1127.524253 43.045246 -1775.249998
1123.251631 43.344047 -1780.877954
1118.979023 43.642853 -1786.506032
1109.379416 42.995704 -1779.328397
1107.255572 43.144241 -1782.126114
1105.131823 43.292764 -1784.923576
1103.008087 43.441294 -1787.721159
1093.470905 42.789778 -1780.461351
1083.958737 42.136519 -1773.168645
1081.860017 42.283302 -1775.933329
1079.761284 42.430078 -1778.697892
1077.662442 42.576862 -1781.462589
1068.212807 41.919229 -1774.087576
1066.126467 42.065137 -1776.835763
1057.324840 41.472066 -1770.259058
1055.250036 41.617167 -1772.992062
1059.867676 42.502850 -1785.080178
1051.100332 41.907383 -1778.458325
1049.025528 42.052484 -1781.191329
1035.562656 41.675515 -1779.102674
897.671170 50.110391 -1942.568994
895.620246 50.253823 -1945.270567
893.569384 50.397255 -1947.972133
879.532720 50.170292 -1948.291196
871.671680 49.511434 -1940.475443
869.643708 49.653255 -1943.146662
867.615762 49.795088 -1945.818124
859.800433 49.133034 -1937.942175
857.783949 49.274056 -1940.598339
855.767466 49.415077 -1943.254503
847.997956 48.749824 -1935.318223
845.992912 48.890053 -1937.959460
838.778795 48.295821 -1930.943354
836.784141 48.435315 -1933.570753
808.112078 48.133150 -1936.649611
798.573981 47.591578 -1931.042953
796.612631 47.728739 -1933.626411
789.588115 47.121266 -1926.360844
787.637180 47.257706 -1928.930708
785.686293 47.394139 -1931.500444
778.703419 46.783736 -1924.179765
776.762947 46.919447 -1926.735907
769.811169 46.306871 -1919.374215
762.880377 45.692837 -1911.985073
760.960709 45.827091 -1914.513783
759.041076 45.961333 -1917.042244
757.121468 46.095587 -1919.570948
750.242698 45.477918 -1912.113348
748.333479 45.611438 -1914.628215
746.424261 45.744958 -1917.143081
1692.674030 36.869456 -1594.303912
1690.182559 37.043695 -1597.585731
1675.340182 36.351262 -1590.705379
1672.865424 36.524334 -1593.965221
1657.303132 35.774092 -1586.381162
1654.846065 35.945933 -1589.617821
1635.223969 35.587772 -1589.033548
1618.125454 35.053114 -1585.124989
1615.701692 35.222622 -1588.317706
1601.855205 34.568696 -1581.777500
1588.039984 33.912581 -1575.196140
1573.496546 33.199240 -1567.921994
1571.120642 33.365397 -1571.051593
1557.384667 32.703745 -1564.365949
1555.024389 32.868807 -1567.474911
1552.664233 33.033868 -1570.583860
1174.194701 41.657107 -1796.547360
1172.006272 41.810155 -1799.430051
1169.817953 41.963196 -1802.312608
1159.422492 41.284227 -1794.530580
1157.247638 41.436321 -1797.395300
1139.341961 39.984746 -1779.682386
1137.193088 40.135023 -1782.512880
1127.518628 39.513792 -1775.433220
1125.382256 39.663192 -1778.247205
1123.246006 39.812592 -1781.061176
1121.109635 39.961993 -1783.875161
1118.973398 40.111399 -1786.689254
1109.373824 39.484912 -1779.510547
1107.249980 39.633449 -1782.308264
1105.126231 39.781972 -1785.105726
1095.576580 39.151996 -1777.861356
1093.465345 39.299649 -1780.642429
1083.953211 38.667050 -1773.348651
1081.854491 38.813832 -1776.113335
1079.755757 38.960609 -1778.877898
1077.656916 39.107393 -1781.642596
1068.207314 38.470427 -1774.266510
1066.120973 38.616334 -1777.014697
1064.034754 38.762240 -1779.762872
1061.948523 38.908141 -1782.510925
1053.169782 38.332409 -1775.903138
1051.094869 38.477518 -1778.636277
1049.020065 38.622619 -1781.369281
897.665769 46.720126 -1942.744891
895.614846 46.863559 -1945.446463
885.645606 46.371077 -1940.406686
883.606184 46.513716 -1943.093324
881.566737 46.656342 -1945.779720
879.527350 46.798969 -1948.466110
871.666340 46.159052 -1940.649374
869.638369 46.300873 -1943.320594
861.811655 45.658565 -1935.458832
859.795123 45.799593 -1938.115123
857.778640 45.940615 -1940.771287
855.762156 46.081636 -1943.427452
847.992676 45.435321 -1935.490189
845.987633 45.575549 -1938.131426
838.773543 44.998536 -1931.114426
808.106884 44.872023 -1936.818808
798.568816 44.349391 -1931.211167
796.607467 44.486553 -1933.794625
794.646179 44.623714 -1936.378076
787.632043 44.032735 -1929.098028
785.681156 44.169167 -1931.667764
783.730270 44.305600 -1934.237500
776.757837 43.711699 -1926.902334
774.817365 43.847410 -1929.458475
767.876017 43.251321 -1922.082175
765.946007 43.386303 -1924.624594
759.036021 42.788019 -1917.206885
757.116413 42.922274 -1919.735588
750.237671 42.321824 -1912.277095
748.328452 42.455344 -1914.791962
746.419234 42.588864 -1917.306828
1692.667470 32.750863 -1594.517596
1690.175999 32.925102 -1597.799415
1675.333665 32.260216 -1590.917635
1672.858907 32.433287 -1594.177476
1657.296662 31.712318 -1586.591899
1654.839595 31.884159 -1589.828557
1637.657910 31.382877 -1586.028295
1635.217543 31.553545 -1589.242855
1620.542834 30.876934 -1582.140149
1618.119072 31.046442 -1585.332866
1615.695310 31.215950 -1588.525584
1601.848864 30.587849 -1581.984037
1599.440728 30.756261 -1585.156117
1585.641175 30.124880 -1578.552780
1568.738604 29.604083 -1574.384948
1555.018175 28.967165 -1567.677339
1552.658019 29.132226 -1570.786289
1550.297754 29.297294 -1573.895372
1174.188939 38.039560 -1796.735049
1172.000510 38.192608 -1799.617740
1169.812190 38.345649 -1802.500296
1159.416765 37.689069 -1794.717108
1157.241912 37.841163 -1797.581827
1137.187430 36.582909 -1782.697174
1135.038679 36.733186 -1785.527655
1125.376631 36.131741 -1778.430427
1123.240381 36.281141 -1781.244398
1121.104010 36.430542 -1784.058383
1118.967773 36.579948 -1786.872476
1109.368232 35.974121 -1779.692697
1107.244387 36.122657 -1782.490414
1105.120639 36.271181 -1785.287876
1095.571020 35.661868 -1778.042434
1093.459786 35.809521 -1780.823507
1079.750231 35.491144 -1779.057904
1077.651389 35.637927 -1781.822601
1075.552535 35.784705 -1784.587177
1066.115480 35.167528 -1777.193631
1064.029261 35.313434 -1779.941806
1061.943029 35.459334 -1782.689859
1053.164318 34.902544 -1776.081090
1051.089405 35.047653 -1778.814228
1049.014601 35.192754 -1781.547232
911.811562 43.510929 -1942.452676
897.660369 43.329862 -1942.920787
895.609446 43.473294 -1945.622360
887.679684 42.857127 -1937.895203
885.640236 42.999753 -1940.581599
883.600814 43.142392 -1943.268238
881.561367 43.285019 -1945.954634
879.521980 43.427645 -1948.641024
871.661001 42.806666 -1940.823305
869.633029 42.948487 -1943.494525
861.806345 42.325120 -1935.631780
859.789813 42.466149 -1938.288072
851.997496 41.840366 -1930.379804
849.992452 41.980594 -1933.021040
847.987397 42.120817 -1935.662155
845.982353 42.261046 -1938.303392
838.768290 41.701252 -1931.285499
804.447552 40.695709 -1923.628777
802.486264 40.832870 -1926.212229
800.524928 40.970038 -1928.795808
798.563652 41.107205 -1931.379381
796.602303 41.244366 -1933.962839
789.577841 40.671328 -1926.695486
787.626906 40.807767 -1929.265349
785.676019 40.944200 -1931.835085
783.725133 41.080633 -1934.404821
781.774259 41.217072 -1936.974678
774.812256 40.639658 -1929.624903
767.870935 40.060792 -1922.247709
765.940925 40.195774 -1924.790128
759.030966 39.614706 -1917.371525
752.141849 39.032200 -1909.925855
750.232644 39.165726 -1912.440843
748.323425 39.299246 -1914.955709
1692.660910 28.632270 -1594.731281
1690.169438 28.806508 -1598.013100
1675.327149 28.169173 -1591.129890
1672.852391 28.342245 -1594.389731
1657.290193 27.650545 -1586.802635
1654.833125 27.822386 -1590.039294
1640.091959 27.177980 -1583.022907
1637.651484 27.348655 -1586.237602
1635.211117 27.519323 -1589.452162
1620.536452 26.870258 -1582.348027
1618.112690 27.039766 -1585.540744
1615.688928 27.209275 -1588.733462
1601.842523 26.606998 -1582.190575
1599.434387 26.775411 -1585.362655
1585.634875 26.169858 -1578.757978
1571.108130 25.510456 -1571.459130
1568.732348 25.676612 -1574.588717
1555.011960 25.065519 -1567.879768
1552.651804 25.230580 -1570.988717
1550.291539 25.395648 -1574.097801
1176.371618 34.268975 -1794.040168
1174.183176 34.422017 -1796.922738
1171.994748 34.575065 -1799.805428
1169.806428 34.728106 -1802.687985
1159.411038 34.093906 -1794.903635
1157.236185 34.246001 -1797.768355
1137.181772 33.030795 -1782.881468
1135.033021 33.181072 -1785.711949
1125.371006 32.600290 -1778.613649
1123.234756 32.749690 -1781.427620
1121.098385 32.899091 -1784.241605
1118.962147 33.048497 -1787.055697
1109.362640 32.463329 -1779.874847
1107.238795 32.611866 -1782.672564
1105.115047 32.760389 -1785.470026
1095.565461 32.171739 -1778.223512
1093.454227 32.319392 -1781.004585
1079.744705 32.021678 -1779.237910
1075.547008 32.315239 -1784.767183
1066.109986 31.718722 -1777.372565
1064.023767 31.864628 -1780.120740
1055.233646 31.327572 -1773.525916
1053.158855 31.472679 -1776.259041
1051.083942 31.617788 -1778.992179
1049.009138 31.762889 -1781.725183
911.806132 40.101723 -1942.629555
889.713700 39.343177 -1935.383728
887.674314 39.485803 -1938.070117
885.634866 39.628430 -1940.756513
883.595444 39.771069 -1943.443152
881.555997 39.913696 -1946.129548
879.516610 40.056322 -1948.815938
871.655661 39.454284 -1940.997237
863.817506 38.850652 -1933.148443
861.801035 38.991679 -1935.804729
859.784504 39.132708 -1938.461021
851.992216 38.525862 -1930.551770
849.987173 38.666091 -1933.193006
847.982117 38.806313 -1935.834121
845.977074 38.946542 -1938.475358
838.763038 38.403968 -1931.456572
836.768384 38.543462 -1934.083971
829.066674 37.930294 -1926.055642
812.041962 38.073834 -1931.959951
804.442388 37.453522 -1923.796991
802.481100 37.590683 -1926.380443
800.519763 37.727851 -1928.964022
798.558487 37.865018 -1931.547595
796.597138 38.002180 -1934.131053
789.572704 37.446360 -1926.862806
787.621769 37.582800 -1929.432670
785.670883 37.719233 -1932.002406
783.719996 37.855666 -1934.572141
776.747618 37.296199 -1927.235189
769.795923 36.735276 -1919.870817
767.865853 36.870259 -1922.413243
765.935843 37.005241 -1924.955662
759.025912 36.441393 -1917.536166
752.136822 35.876106 -1910.089602
750.227616 36.009632 -1912.604590
748.318398 36.143152 -1915.119457
1692.654349 24.513677 -1594.944965
1690.162878 24.687915 -1598.226784
1675.320632 24.078131 -1591.342145
1672.845874 24.251203 -1594.601986
1657.283723 23.588771 -1587.013372
1642.526008 22.973082 -1580.017520
1640.085533 23.143757 -1583.232215
1637.645058 23.314432 -1586.446909
1635.204691 23.485100 -1589.661469
1620.530070 22.863583 -1582.555905
1618.106308 23.033091 -1585.748622
1615.682546 23.202599 -1588.941340
1601.836182 22.626152 -1582.397113
1588.021084 22.047519 -1575.811733
1585.628576 22.214836 -1578.963176
1571.101874 21.582985 -1571.662899
1568.726092 21.749141 -1574.792485
1555.005745 21.163877 -1568.082196
1552.645589 21.328938 -1571.191146
1550.285324 21.494006 -1574.300229
1159.405312 30.498748 -1795.090162
1157.230458 30.650842 -1797.954882
1147.504979 30.095161 -1790.939143
1137.176114 29.478681 -1783.065762
1135.027363 29.628957 -1785.896243
1125.365381 29.068836 -1778.796871
1123.229131 29.218235 -1781.610842
1121.092760 29.367636 -1784.424827
1118.956522 29.517042 -1787.238920
1109.357047 28.952541 -1780.056997
1099.782614 28.386303 -1772.842418
1097.671258 28.533956 -1775.623504
1088.134341 27.965095 -1768.359517
1086.035486 28.111872 -1771.124093
1083.936632 28.258649 -1773.888669
1077.640337 28.698992 -1782.182613
1068.190833 28.124008 -1774.803312
1066.104493 28.269916 -1777.551499
1064.018274 28.415822 -1780.299674
1055.228183 27.897703 -1773.703867
1053.153392 28.042811 -1776.436993
1051.078479 28.187919 -1779.170131
1049.003675 28.333020 -1781.903135
901.751306 36.262479 -1937.869569
899.700431 36.405905 -1940.571014
891.747778 35.829227 -1932.872245
889.708330 35.971854 -1935.558642
887.668943 36.114480 -1938.245031
879.511240 36.684998 -1948.990852
871.650321 36.101901 -1941.171168
863.812196 35.517207 -1933.321392
861.795725 35.658235 -1935.977678
859.779194 35.799263 -1938.633969
851.986937 35.211358 -1930.723736
849.981893 35.351587 -1933.364972
842.747021 34.827689 -1926.372731
840.752440 34.967189 -1929.000245
838.757786 35.106683 -1931.627644
836.763132 35.246177 -1934.255044
829.061452 34.651951 -1926.225732
814.009532 34.674743 -1929.530520
812.036768 34.812710 -1932.129148
804.437224 34.211336 -1923.965205
802.475935 34.348497 -1926.548657
800.514599 34.485664 -1929.132236
798.553323 34.622832 -1931.715809
796.591974 34.759993 -1934.299267
789.567567 34.221389 -1927.030127
785.665746 34.494262 -1932.169726
783.714859 34.630694 -1934.739462
776.742509 34.088447 -1927.401616
769.790841 33.544744 -1920.036351
767.860771 33.679726 -1922.578777
765.930761 33.814709 -1925.121196
759.020857 33.268077 -1917.700807
752.131795 32.720010 -1910.253350
750.222589 32.853536 -1912.768337
748.313370 32.987056 -1915.283204
746.404152 33.120575 -1917.798070
1692.647789 20.395083 -1595.158650
1677.788983 19.814006 -1588.294425
1675.314116 19.987085 -1591.554400
1672.839358 20.160157 -1594.814242
1657.277253 19.526998 -1587.224108
1642.519582 18.938856 -1580.226827
1640.079107 19.109531 -1583.441522
1637.638632 19.280206 -1586.656216
1622.947450 18.687399 -1579.571065
1620.523688 18.856907 -1582.763783
1618.099926 19.026415 -1585.956500
1615.676164 19.195923 -1589.149218
1601.829841 18.645305 -1582.603651
1588.014784 18.092502 -1576.016931
1585.622276 18.259818 -1579.168374
1571.095618 17.655514 -1571.866667
1568.719836 17.821670 -1574.996254
1554.999530 17.262231 -1568.284625
1552.639374 17.427292 -1571.393574
1550.279110 17.592360 -1574.502658
1151.823843 26.218218 -1785.427949
1149.661625 26.369441 -1788.276267
1147.499286 26.520665 -1791.124598
1137.170456 25.926567 -1783.250056
1135.021704 26.076843 -1786.080537
1132.872966 26.227126 -1788.911140
1123.223506 25.686784 -1781.794064
1121.087134 25.836185 -1784.608049
1118.950897 25.985591 -1787.422141
1109.351455 25.441750 -1780.239147
1099.777054 24.896172 -1773.023497
1097.665698 25.043826 -1775.804582
1088.128814 24.495627 -1768.539523
1086.029960 24.642405 -1771.304099
1083.931105 24.789182 -1774.068675
1081.832385 24.935965 -1776.833359
1079.733652 25.082741 -1779.597922
1070.271680 24.529297 -1772.234059
1068.185340 24.675204 -1774.982246
1066.098999 24.821111 -1777.730433
1057.297524 24.322739 -1771.148814
911.795271 33.283318 -1942.983314
903.796768 32.728783 -1935.343899
901.745906 32.872215 -1938.045466
893.781794 32.315278 -1930.360770
891.742408 32.457904 -1933.047159
889.702960 32.600531 -1935.733556
875.700899 32.465863 -1936.002418
871.644981 32.749517 -1941.345099
863.806887 32.183764 -1933.494341
861.790416 32.324792 -1936.150626
859.773884 32.465820 -1938.806918
851.981657 31.896855 -1930.895702
849.976614 32.037083 -1933.536938
842.741769 31.530402 -1926.543803
840.747188 31.669903 -1929.171318
838.752534 31.809397 -1931.798717
836.757880 31.948891 -1934.426116
834.763238 32.088392 -1937.053637
827.073112 31.512294 -1929.008038
825.089886 31.650989 -1931.620389
817.949865 31.137682 -1924.502460
815.977101 31.275649 -1927.101088
814.004337 31.413616 -1929.699716
812.031573 31.551582 -1932.298345
804.432059 30.969147 -1924.133419
802.470771 31.106308 -1926.716871
798.548159 31.380643 -1931.884023
791.513304 30.859983 -1924.627591
781.758848 31.542166 -1937.476640
774.796927 31.016408 -1930.124185
767.855689 30.489194 -1922.744311
765.925679 30.624176 -1925.286730
759.015802 30.094764 -1917.865447
757.096195 30.229018 -1920.394151
750.217562 29.697440 -1912.932085
748.308343 29.830960 -1915.446951
746.399125 29.964479 -1917.961818
744.489906 30.097999 -1920.476684
742.580700 30.231525 -1922.991672
740.671494 30.365051 -1925.506660
1692.641228 16.276490 -1595.372334
1677.782466 15.722963 -1588.506680
1675.307599 15.896042 -1591.766655
1672.832841 16.069114 -1595.026497
1642.513156 14.904633 -1580.436134
1640.072681 15.075308 -1583.650829
1637.632206 15.245983 -1586.865523
1622.941068 14.680723 -1579.778943
1620.517306 14.850232 -1582.971661
1618.093544 15.019740 -1586.164378
1615.669781 15.189248 -1589.357095
1601.823500 14.664458 -1582.810189
1588.008485 14.137480 -1576.222129
1585.615976 14.304797 -1579.373571
1571.089363 13.728041 -1572.070436
1568.713580 13.894197 -1575.200022
1554.993315 13.360589 -1568.487054
1552.633159 13.525650 -1571.596003
1550.272895 13.690718 -1574.705086
1521.410731 12.822467 -1564.804202
1151.818149 22.643719 -1785.613404
1149.655931 22.794942 -1788.461723
1147.493592 22.946166 -1791.310054
1137.164798 22.374451 -1783.434350
1135.016046 22.524727 -1786.264831
1132.867308 22.675010 -1789.095434
1123.217881 22.155331 -1781.977286
1121.081509 22.304732 -1784.791270
1118.945272 22.454138 -1787.605363
1116.809035 22.603544 -1790.419456
1107.222018 22.079494 -1783.219014
1105.098270 22.228018 -1786.016476
1088.123288 21.026162 -1768.719529
1086.024433 21.172939 -1771.484105
1083.925579 21.319717 -1774.248681
1074.438746 20.788679 -1766.916631
1072.352406 20.934586 -1769.664818
1070.266187 21.080493 -1772.412993
1068.179846 21.226400 -1775.161180
1066.093506 21.372307 -1777.909367
1057.292060 20.892874 -1771.326765
915.914481 29.585652 -1937.726956
913.852143 29.729889 -1940.443699
911.789841 29.874114 -1943.160193
903.791368 29.338520 -1935.519796
901.740506 29.481952 -1938.221362
893.776424 28.943954 -1930.535684
891.737038 29.086581 -1933.222073
889.697590 29.229207 -1935.908470
875.695559 29.113481 -1936.176349
873.667600 29.255308 -1938.847690
871.639641 29.397135 -1941.519031
863.801577 28.850319 -1933.667290
861.785106 28.991347 -1936.323575
859.768574 29.132375 -1938.979867
851.976377 28.582351 -1931.067668
849.971334 28.722580 -1933.708904
838.747282 28.512112 -1931.969790
836.752628 28.651607 -1934.597189
834.757986 28.791107 -1937.224710
827.067890 28.233949 -1929.178128
825.084664 28.372644 -1931.790479
817.944670 27.876554 -1924.671657
815.971906 28.014521 -1927.270285
813.999142 28.152488 -1929.868913
806.388183 27.589799 -1921.718182
804.426895 27.726960 -1924.301633
802.465606 27.864121 -1926.885085
798.542994 28.138456 -1932.052237
791.508167 27.635013 -1924.794911
776.732290 27.672947 -1927.734471
774.791818 27.808658 -1930.290612
767.850606 27.298661 -1922.909845
765.920597 27.433643 -1925.452264
759.010748 26.921450 -1918.030088
757.091140 27.055704 -1920.558792
755.171472 27.189959 -1923.087501
753.251851 27.324207 -1925.616084
744.484879 26.941903 -1920.640432
742.575673 27.075429 -1923.155419
740.666467 27.208955 -1925.670407
738.757249 27.342474 -1928.185274
1677.775950 11.631917 -1588.718935
1675.301083 11.804996 -1591.978910
1644.947084 10.699735 -1577.430760
1642.506730 10.870409 -1580.645442
1640.066255 11.041084 -1583.860136
1604.225294 10.515197 -1579.844647
1601.817159 10.683610 -1583.016727
1588.002185 10.182460 -1576.427327
1585.609676 10.349777 -1579.578769
1571.083107 9.800570 -1572.274204
1568.707324 9.966727 -1575.403791
1554.987101 9.458946 -1568.689482
1552.626945 9.624006 -1571.798431
1550.266680 9.789074 -1574.907515
1537.362192 9.322066 -1568.771201
1521.404595 8.970755 -1565.004040
1151.812455 19.069220 -1785.798860
1149.650237 19.220443 -1788.647178
1147.487898 19.371667 -1791.495509
1145.325559 19.522891 -1794.343840
1135.010388 18.972613 -1786.449125
1132.861650 19.122896 -1789.279728
1130.712886 19.273166 -1792.110088
1121.075884 18.773279 -1784.974492
1118.939647 18.922685 -1787.788585
1116.803410 19.072091 -1790.602678
1107.216426 18.568705 -1783.401164
1097.654580 18.063569 -1776.166738
1095.543224 18.211223 -1778.947824
1093.431989 18.358876 -1781.728897
1083.920052 17.850249 -1774.428687
1074.433252 17.339873 -1767.095565
1072.346912 17.485780 -1769.843752
1070.260693 17.631687 -1772.591927
1057.286597 17.463009 -1771.504717
915.909051 26.176448 -1937.903835
913.846713 26.320685 -1940.620578
911.784410 26.464910 -1943.337073
903.785968 25.948258 -1935.695692
901.735105 26.091689 -1938.397259
893.771054 25.572631 -1930.710598
891.731668 25.715257 -1933.396987
889.692220 25.857884 -1936.083383
887.652833 26.000510 -1938.769773
885.613386 26.143136 -1941.456169
875.690219 25.761097 -1936.350280
869.606329 26.186572 -1944.364181
861.779796 25.657904 -1936.496524
859.763265 25.798932 -1939.152815
851.971098 25.267849 -1931.239634
849.966055 25.408078 -1933.880870
842.731265 24.935832 -1926.885949
838.742030 25.214826 -1932.140862
836.747376 25.354320 -1934.768262
834.752734 25.493821 -1937.395782
827.062668 24.955603 -1929.348218
825.079442 25.094299 -1931.960569
817.939476 24.615428 -1924.840853
815.966712 24.753395 -1927.439482
813.993948 24.891362 -1930.038110
806.383019 24.347613 -1921.886396
804.421730 24.484774 -1924.469847
798.537830 24.896270 -1932.220451
791.503030 24.410046 -1924.962232
776.727180 24.465195 -1927.900898
769.775594 23.973146 -1920.532953
767.845524 24.108128 -1923.075379
765.915515 24.243111 -1925.617798
759.005693 23.748135 -1918.194729
757.086085 23.882389 -1920.723432
755.166417 24.016644 -1923.252142
751.327115 24.285140 -1928.309313
744.479852 23.785807 -1920.804179
742.570646 23.919333 -1923.319167
740.661440 24.052859 -1925.834155
738.752221 24.186378 -1928.349021
732.445500 23.747053 -1921.784137
730.545670 23.879922 -1924.286742
728.645827 24.012784 -1926.789226
726.745937 24.145653 -1929.291838
1692.628108 8.039304 -1595.799703
1677.769433 7.540873 -1588.931190
1675.294566 7.713952 -1592.191166
1644.940658 6.665510 -1577.640067
1642.500304 6.836184 -1580.854749
1604.218953 6.534350 -1580.051185
1601.810818 6.702763 -1583.223265
1587.995885 6.227440 -1576.632525
1585.603376 6.394757 -1579.783967
1571.076851 5.873099 -1572.477973
1568.701068 6.039256 -1575.607560
1554.980886 5.557302 -1568.891911
1542.047221 5.116444 -1562.792833
1539.701618 5.280486 -1565.882606
1151.806761 15.494723 -1785.984315
1149.644544 15.645946 -1788.832633
1147.482204 15.797170 -1791.680964
1145.319865 15.948394 -1794.529296
1143.157526 16.099618 -1797.377627
1132.855992 15.570782 -1789.464022
1130.707228 15.721052 -1792.294382
1121.070259 15.241826 -1785.157714
1118.934022 15.391232 -1787.971807
1116.797785 15.540638 -1790.785900
1107.210834 15.057913 -1783.583314
1097.649020 14.573440 -1776.347816
1095.537665 14.721094 -1779.128902
1093.426430 14.868747 -1781.909975
1083.914526 14.380782 -1774.608693
1074.427759 13.891069 -1767.274499
1072.341419 14.036976 -1770.022686
1070.255200 14.182882 -1772.770861
1057.281134 14.033144 -1771.682668
1055.206330 14.178245 -1774.415672
1053.131538 14.323352 -1777.148798
911.778980 23.055708 -1943.513952
903.780567 22.557993 -1935.871589
901.729705 22.701425 -1938.573155
899.678830 22.844850 -1941.274601
891.726297 22.343934 -1933.571901
889.686850 22.486560 -1936.258297
887.647463 22.629187 -1938.944687
885.608016 22.771813 -1941.631083
877.712839 22.266885 -1933.852871
867.573043 22.976021 -1947.209575
859.757955 22.465489 -1939.325764
857.741471 22.606511 -1941.981928
855.724988 22.747532 -1944.638092
847.955719 22.233797 -1936.693951
838.736778 21.917542 -1932.311935
836.742123 22.057036 -1934.939334
834.747482 22.196536 -1937.566855
827.057446 21.677258 -1929.518308
825.074220 21.815954 -1932.130659
817.934281 21.354301 -1925.010050
815.961517 21.492267 -1927.608678
813.988753 21.630234 -1930.207306
806.377854 21.105426 -1922.054610
804.416566 21.242587 -1924.638061
798.532666 21.654083 -1932.388665
791.497893 21.185077 -1925.129553
769.770512 20.782615 -1920.698487
767.840442 20.917598 -1923.240913
765.910433 21.052580 -1925.783332
759.000638 20.574822 -1918.359370
751.322061 21.111826 -1928.473954
744.474824 20.629711 -1920.967926
742.565618 20.763237 -1923.482914
740.656413 20.896762 -1925.997902
734.340387 20.473583 -1919.444469
732.440497 20.606452 -1921.947080
726.740934 21.005052 -1929.454781
1692.621547 3.920711 -1596.013388
1677.762917 3.449831 -1589.143445
1675.288050 3.622910 -1592.403421
1644.934232 2.631288 -1577.849374
1642.493878 2.801962 -1581.064056
1604.212612 2.553502 -1580.257723
1601.804477 2.721914 -1583.429803
1587.989585 2.272419 -1576.837723
1573.446499 1.779471 -1569.552142
1571.070595 1.945629 -1572.681741
1568.694812 2.111785 -1575.811328
1554.974671 1.655658 -1569.094339
1542.041045 1.238905 -1562.994011
1539.695442 1.402947 -1566.083784
1145.314172 12.373895 -1794.714751
1134.999072 11.868385 -1786.817713
1132.850334 12.018668 -1789.648316
1130.701570 12.168938 -1792.478676
1121.064634 11.710373 -1785.340936
1118.928397 11.859779 -1788.155029
1116.792159 12.009185 -1790.969122
1107.205242 11.547123 -1783.765464
1105.081493 11.695647 -1786.562925
1095.532105 11.230966 -1779.309980
1093.420871 11.378619 -1782.091053
1083.909000 10.911314 -1774.788699
1074.422265 10.442263 -1767.453433
1072.335925 10.588170 -1770.201620
1070.249706 10.734076 -1772.949795
1068.163366 10.879983 -1775.697982
1057.275670 10.603277 -1771.860619
1055.200866 10.748378 -1774.593624
1053.126075 10.893485 -1777.326749
1051.051162 11.038594 -1780.059887
911.773549 19.646504 -1943.690831
903.775167 19.167730 -1936.047486
901.724305 19.311162 -1938.749052
899.673430 19.454588 -1941.450497
897.622567 19.598020 -1944.152064
889.681480 19.115237 -1936.433211
887.642093 19.257863 -1939.119601
885.602646 19.400490 -1941.805997
875.679540 19.056330 -1936.698143
871.623621 19.339985 -1942.040825
869.595649 19.481806 -1944.712044
867.567703 19.623639 -1947.383506
859.752645 19.132046 -1939.498713
857.736162 19.273068 -1942.154877
849.955495 18.779071 -1934.224802
847.950440 18.919293 -1936.865917
840.726180 18.480763 -1929.855608
838.731525 18.620257 -1932.483008
836.736871 18.759752 -1935.110407
834.742230 18.899252 -1937.737928
827.052224 18.398913 -1929.688398
825.068998 18.537608 -1932.300749
823.085832 18.676303 -1934.913093
821.102653 18.814992 -1937.525315
813.983559 18.369108 -1930.376503
806.372690 17.863240 -1922.222824
798.527501 18.411897 -1932.556879
791.492756 17.960108 -1925.296873
771.695513 17.457106 -1918.321717
769.765430 17.592082 -1920.864021
767.835360 17.727065 -1923.406447
765.905351 17.862047 -1925.948866
758.995584 17.401507 -1918.524010
751.317006 17.938512 -1928.638594
749.397398 18.072766 -1931.167298
742.560591 17.607141 -1923.646662
740.651385 17.740667 -1926.161649
734.335385 17.332985 -1919.607412
721.881264 17.260204 -1919.486078
1692.614987 -0.197882 -1596.227072
1690.123515 -0.023643 -1599.508891
1675.281533 -0.468134 -1592.615676
1644.927806 -1.402937 -1578.058682
1642.487452 -1.232263 -1581.273363
1604.206271 -1.427345 -1580.464260
1601.798136 -1.258932 -1583.636340
1587.983285 -1.682601 -1577.042920
1573.440243 -2.148000 -1569.755910
1571.064339 -1.981843 -1572.885510
1568.688556 -1.815687 -1576.015097
1554.968456 -2.245986 -1569.296768
1542.034868 -2.638634 -1563.195189
1539.689265 -2.474591 -1566.284962
1178.519601 8.793130 -1792.471432
1176.331282 8.946171 -1795.353988
1174.142840 9.099213 -1798.236558
1163.720525 8.623594 -1790.479778
1161.545793 8.775688 -1793.344485
1147.470817 8.648174 -1792.051875
1145.308478 8.799398 -1794.900206
1134.993414 8.316270 -1787.002007
1132.844676 8.466553 -1789.832610
1130.695912 8.616823 -1792.662970
1121.059009 8.178921 -1785.524158
1118.922771 8.328327 -1788.338251
1116.786534 8.477733 -1791.152344
1107.199650 8.036332 -1783.947614
1105.075901 8.184855 -1786.745075
1095.526546 7.740836 -1779.491058
1093.415311 7.888489 -1782.272131
1083.903473 7.441848 -1774.968705
1081.804753 7.588631 -1777.733389
1079.706020 7.735407 -1780.497952
1070.244213 7.285272 -1773.128729
1068.157872 7.431179 -1775.876916
1057.270207 7.173413 -1772.038571
1055.195403 7.318514 -1774.771575
1053.120612 7.463621 -1777.504700
1051.045699 7.608730 -1780.237838
911.768119 16.237300 -1943.867711
903.769767 15.777467 -1936.223382
901.718905 15.920899 -1938.924949
899.668029 16.064324 -1941.626394
897.617167 16.207756 -1944.327960
889.676110 15.743913 -1936.608126
887.636723 15.886539 -1939.294515
885.597275 16.029165 -1941.980911
883.557854 16.171804 -1944.667550
881.518406 16.314431 -1947.353946
871.618281 15.987602 -1942.214756
869.590309 16.129422 -1944.885975
867.562363 16.271256 -1947.557437
859.747335 15.798602 -1939.671661
857.730852 15.939624 -1942.327825
849.950216 15.464567 -1934.396768
847.945160 15.604790 -1937.037883
840.720927 15.183478 -1930.026681
838.726273 15.322972 -1932.654080
836.731619 15.462466 -1935.281480
829.030120 14.981880 -1927.246272
827.047002 15.120568 -1929.858488
825.063776 15.259263 -1932.470839
823.080610 15.397958 -1935.083183
821.097431 15.536647 -1937.695405
813.978364 15.107980 -1930.545700
806.367526 14.621052 -1922.391038
798.522337 15.169709 -1932.725093
791.487619 14.735139 -1925.464194
789.536745 14.871578 -1928.034051
787.585810 15.008018 -1930.603915
785.634924 15.144451 -1933.173650
783.684037 15.280883 -1935.743386
771.690431 14.266573 -1918.487251
769.760348 14.401549 -1921.029555
767.830278 14.536532 -1923.571981
765.900269 14.671515 -1926.114400
751.311951 14.765199 -1928.803235
749.392344 14.899453 -1931.331939
742.555564 14.451045 -1923.810409
740.646358 14.584571 -1926.325397
734.330382 14.192385 -1919.770355
1690.116955 -4.142236 -1599.722576
1675.275017 -4.559179 -1592.827931
1647.361868 -5.607830 -1575.053415
1644.921380 -5.437161 -1578.267989
1642.481026 -5.266487 -1581.482670
1606.608066 -5.576605 -1577.498718
1604.199930 -5.408193 -1580.670798
1601.791795 -5.239780 -1583.842878
1575.809891 -6.241628 -1566.830079
1573.433987 -6.075471 -1569.959679
1571.058083 -5.909314 -1573.089278
1568.682300 -5.743158 -1576.218865
1554.962241 -6.147630 -1569.499196
1552.602085 -5.982569 -1572.608146
1539.683089 -6.352129 -1566.486139
1537.337486 -6.188087 -1569.575912
1521.380054 -6.436089 -1565.803392
1178.513839 5.175586 -1792.659120
1176.325519 5.328627 -1795.541677
1165.889638 4.876335 -1787.801464
1163.714798 5.028435 -1790.666305
1161.540066 5.180528 -1793.531012
1151.789680 4.771228 -1786.540681
1147.465123 5.073675 -1792.237330
1145.302784 5.224899 -1795.085661
1143.140445 5.376123 -1797.933993
1132.839018 4.914439 -1790.016904
1130.690253 5.064709 -1792.847264
1121.053384 4.647469 -1785.707380
1118.917146 4.796875 -1788.521473
1116.780909 4.946281 -1791.335566
1107.194057 4.525541 -1784.129764
1105.070309 4.674064 -1786.927225
1095.520987 4.250707 -1779.672136
1093.409752 4.398360 -1782.453209
1083.897947 3.972381 -1775.148711
1081.799227 4.119163 -1777.913395
1079.700493 4.265940 -1780.677958
1070.238719 3.836467 -1773.307663
1068.152379 3.982374 -1776.055850
1066.066038 4.128281 -1778.804037
1055.189940 3.888649 -1774.949526
1053.115148 4.033756 -1777.682652
901.713504 12.530635 -1939.100845
899.662629 12.674061 -1941.802291
897.611767 12.817492 -1944.503857
889.670740 12.372590 -1936.783039
887.631353 12.515216 -1939.469429
885.591905 12.657843 -1942.155825
883.552483 12.800482 -1944.842464
881.513036 12.943109 -1947.528860
873.640901 12.493390 -1939.717347
871.612941 12.635217 -1942.388687
869.584969 12.777038 -1945.059907
867.557023 12.918872 -1947.731369
859.742026 12.465159 -1939.844610
857.725542 12.606181 -1942.500774
849.944936 12.150064 -1934.568734
847.939880 12.290287 -1937.209849
840.715675 11.886192 -1930.197754
838.721021 12.025686 -1932.825153
836.726367 12.165181 -1935.452552
829.024898 11.703535 -1927.416362
827.041780 11.842223 -1930.028578
825.058554 11.980918 -1932.640929
823.075388 12.119613 -1935.253273
821.092209 12.258302 -1937.865495
813.973170 11.846854 -1930.714896
806.362361 11.378865 -1922.559252
798.517172 11.927522 -1932.893307
791.482482 11.510171 -1925.631515
789.531608 11.646610 -1928.201372
787.580673 11.783049 -1930.771235
785.629787 11.919482 -1933.340971
783.678900 12.055915 -1935.910707
771.685349 11.076041 -1918.652785
769.755266 11.211018 -1921.195089
767.825196 11.346000 -1923.737515
751.306897 11.591884 -1928.967876
749.387289 11.726138 -1931.496579
742.550537 11.294949 -1923.974156
740.641331 11.428475 -1926.489144
734.325380 11.051785 -1919.933299
1690.110395 -8.260829 -1599.936260
1644.914954 -9.471385 -1578.477296
1606.601725 -9.557453 -1577.705256
1604.193590 -9.389040 -1580.877336
1590.363182 -9.759965 -1574.301752
1587.970686 -9.592641 -1577.453316
1585.578177 -9.425325 -1580.604759
1583.185681 -9.258001 -1583.756322
1568.676044 -9.670629 -1576.422634
1554.956027 -10.049274 -1569.701625
1542.022516 -10.393711 -1563.597545
1539.676913 -10.229668 -1566.687317
1178.508077 1.558043 -1792.846809
1176.319757 1.711084 -1795.729365
1165.883912 1.281174 -1787.987991
1163.709071 1.433275 -1790.852832
1161.534339 1.585368 -1793.717539
1151.783987 1.196730 -1786.726136
1149.621769 1.347953 -1789.574454
1147.459430 1.499177 -1792.422785
1145.297090 1.650401 -1795.271117
1143.134751 1.801625 -1798.119448
1132.833360 1.362324 -1790.201198
1123.184130 0.966616 -1783.076618
1121.047758 1.116016 -1785.890602
1118.911521 1.265422 -1788.704695
1116.775284 1.414828 -1791.518788
1099.738139 0.465271 -1774.291042
1097.626783 0.612924 -1777.072128
1093.404193 0.908231 -1782.634287
1091.292958 1.055884 -1785.415360
1081.793700 0.649696 -1778.093401
1079.694967 0.796473 -1780.857964
1070.233226 0.387661 -1773.486597
1068.146885 0.533568 -1776.234784
1066.060545 0.679476 -1778.982971
1055.184476 0.458784 -1775.127477
1053.109685 0.603891 -1777.860603
899.657229 9.283797 -1941.978187
897.606367 9.427229 -1944.679754
895.555444 9.570661 -1947.381326
887.625983 9.143893 -1939.644343
885.586535 9.286520 -1942.330739
883.547113 9.429159 -1945.017378
881.507666 9.571785 -1947.703774
873.635561 9.141008 -1939.891278
871.607601 9.282835 -1942.562619
869.579630 9.424656 -1945.233838
867.551683 9.566489 -1947.905300
859.736716 9.131716 -1940.017559
857.720232 9.272737 -1942.673723
855.703749 9.413759 -1945.329887
847.934601 8.975783 -1937.381815
840.710423 8.588907 -1930.368826
838.715769 8.728402 -1932.996226
836.721115 8.867896 -1935.623625
834.726473 9.007396 -1938.251146
