# .PCD v.7 - Point Cloud Data file format
VERSION .7
FIELDS x y z
SIZE 4 4 4
TYPE F F F
COUNT 1 1 1
WIDTH 1317
HEIGHT 1
POINTS 1317
DATA ascii
1334.755004 -587.125007 -1019.146300
1332.941635 -586.998184 -1021.535039
1331.128254 -586.871367 -1023.923657
1320.882036 -590.190287 -1067.453642
1319.049903 -590.062155 -1069.867025
1324.769695 -592.479920 -1077.349215
1322.928186 -592.351131 -1079.774980
1321.086677 -592.222342 -1082.200745
1326.768939 -594.637550 -1089.732225
1324.918041 -594.508110 -1092.170251
1330.572189 -596.921279 -1099.738997
1328.711915 -596.791182 -1102.189406
1326.851641 -596.661084 -1104.639815
1332.468271 -599.071630 -1112.257968
1330.598608 -598.940881 -1114.720638
1328.728958 -598.810127 -1117.183430
1334.308180 -601.218056 -1124.850858
1340.695301 -603.906696 -1133.122704
1338.805799 -603.774561 -1135.611478
1345.161640 -606.461022 -1143.924356
1350.673045 -608.864214 -1151.681020
1193.204142 -633.498696 -1624.398949
1191.129350 -633.353589 -1627.132074
1183.177977 -640.644355 -1696.003583
1181.066621 -640.496701 -1698.784669
1451.405609 -565.522950 -623.692148
1381.638125 -549.347849 -632.163326
1380.027853 -549.235233 -634.284458
1378.417580 -549.122618 -636.405590
1383.760036 -551.077663 -641.048434
1389.087927 -553.031697 -645.710333
1387.463108 -552.918060 -647.850703
1385.838289 -552.804424 -649.991072
1381.666024 -555.675512 -678.847134
1380.026652 -555.560857 -681.006680
1378.387165 -555.446198 -683.166300
1391.380915 -559.743684 -691.079204
1389.725916 -559.627933 -693.259387
1388.070783 -559.512188 -695.439462
1386.415663 -559.396437 -697.619658
1384.760664 -559.280686 -699.799841
1389.897960 -561.221389 -704.712837
1367.537178 -563.046340 -759.196378
1365.859081 -562.928990 -761.406685
1358.692885 -567.623919 -809.224013
1356.265653 -574.457642 -864.147684
1354.531408 -574.336355 -866.432152
1352.797158 -574.215071 -868.716559
1356.574717 -576.286570 -877.089257
1354.832171 -576.164703 -879.384647
1353.089631 -576.042833 -881.680096
1358.568129 -578.233348 -887.812272
1356.817166 -578.110897 -890.118656
1347.372088 -583.098267 -944.274956
1345.595150 -582.973996 -946.615627
1334.750229 -590.122680 -1019.301828
1320.877212 -593.218985 -1067.610780
1319.045078 -593.090854 -1070.024163
1321.081828 -595.266522 -1082.358686
1319.240306 -595.137739 -1084.784330
1324.913168 -597.567772 -1092.328996
1323.062282 -597.438326 -1094.767143
1328.707016 -599.866326 -1102.348953
1326.846742 -599.736229 -1104.799362
1330.593685 -602.031569 -1114.880992
1328.724035 -601.900814 -1117.343784
1334.303233 -604.324226 -1125.012015
1340.690325 -607.030054 -1133.284753
1338.800824 -606.897920 -1135.773527
1345.156638 -609.601630 -1144.087300
1343.256686 -609.468761 -1146.589918
1348.758812 -611.886778 -1154.359755
1193.198678 -636.928527 -1624.576898
1181.061062 -643.986814 -1698.965746
1461.315774 -562.362808 -562.383192
1458.716153 -563.774464 -577.488237
1457.076660 -563.659808 -579.647795
1451.401232 -568.270959 -623.834722
1381.633885 -552.009792 -632.301435
1380.023613 -551.897177 -634.422567
1378.413340 -551.784562 -636.543700
1383.755777 -553.751645 -641.187168
1389.083648 -555.717747 -645.849693
1387.458829 -555.604111 -647.990063
1380.022335 -558.270984 -681.147290
1378.382848 -558.156325 -683.306909
1383.572200 -560.112735 -688.152007
1389.721558 -562.363904 -693.401337
1388.066425 -562.248159 -695.581412
1386.411305 -562.132408 -697.761608
1384.756306 -562.016658 -699.941792
1376.650011 -564.636695 -733.981176
1374.980338 -564.519926 -736.180549
1358.688404 -570.437361 -809.369982
1356.261086 -577.324449 -864.296422
1354.526842 -577.203162 -866.580890
1356.570129 -579.167213 -877.238713
1354.827582 -579.045346 -879.534103
1353.085042 -578.923476 -881.829552
1358.563519 -581.127705 -887.962439
1356.812555 -581.005254 -890.268824
1355.061713 -580.882804 -892.575195
1350.921279 -586.284264 -939.745959
1349.144462 -586.159993 -942.086616
1336.558835 -593.247170 -1017.068738
1334.745454 -593.120353 -1019.457356
1322.918488 -598.439492 -1080.090862
1321.076979 -598.310703 -1082.516627
1326.759192 -600.756875 -1090.049713
1324.908294 -600.627435 -1092.487740
1330.562392 -603.071629 -1100.058095
1328.702118 -602.941532 -1102.508504
1326.841844 -602.811434 -1104.958912
1328.719112 -604.991441 -1117.504134
1326.849462 -604.860686 -1119.966926
1332.419246 -607.298990 -1127.648225
1338.795849 -610.021339 -1135.935579
1345.151635 -612.742238 -1144.250244
1343.251684 -612.609369 -1146.752862
1348.753784 -615.042868 -1154.523502
1346.844566 -614.909349 -1157.038368
1183.166859 -647.624581 -1696.365737
1181.055503 -647.476928 -1699.146823
1461.311477 -565.060897 -562.523176
1459.679321 -564.946750 -564.673141
1458.047164 -564.832604 -566.823105
1456.415008 -564.718458 -568.973069
1454.782724 -564.604314 -571.122985
1453.150568 -564.490168 -573.272949
1458.711836 -566.484621 -577.628847
1457.072343 -566.369966 -579.788406
1455.432856 -566.255307 -581.948026
1453.793362 -566.140651 -584.107584
1456.024660 -567.902223 -592.849845
1454.377951 -567.787059 -595.018986
1381.629645 -554.671706 -632.439543
1386.986724 -556.651914 -637.064328
1385.369121 -556.538786 -639.195116
1383.751518 -556.425658 -641.325904
1380.018018 -560.981142 -681.287900
1378.378531 -560.866483 -683.447520
1383.567864 -562.834930 -688.293242
1381.921155 -562.719766 -690.462383
1388.062067 -564.984130 -695.723362
1386.406947 -564.868379 -697.903558
1384.751948 -564.752629 -700.083742
1376.645615 -567.396773 -734.124377
1374.975942 -567.280004 -736.323750
1360.385827 -573.369859 -807.274100
1358.683922 -573.250834 -809.515953
1353.080454 -581.804059 -881.979005
1358.558909 -584.022063 -888.112607
1356.807945 -583.899612 -890.418991
1355.057102 -583.777162 -892.725363
1350.916600 -589.221654 -939.898359
1349.139783 -589.097384 -942.239016
1334.740679 -596.118027 -1019.612884
1332.927311 -595.991203 -1022.001623
1324.755148 -601.612461 -1077.823037
1322.913639 -601.483672 -1080.248802
1321.072130 -601.354883 -1082.674568
1326.754318 -603.816538 -1090.208457
1324.903420 -603.687098 -1092.646484
1330.557494 -606.146774 -1100.217642
1328.697220 -606.016676 -1102.668051
1326.836945 -605.886579 -1105.118460
1332.414298 -610.405160 -1127.809382
1338.790874 -613.144698 -1136.097628
1345.146633 -615.882786 -1144.413185
1343.246681 -615.749916 -1146.915803
1348.748757 -618.198959 -1154.687249
1346.839539 -618.065439 -1157.202115
1183.161299 -651.114756 -1696.546818
1181.049943 -650.967102 -1699.327903
1463.008770 -564.642823 -537.057748
1461.391161 -564.529698 -539.188475
1463.819285 -566.317078 -547.672009
1462.194351 -566.203438 -549.812452
1460.569525 -566.089804 -551.952761
1458.944706 -565.976167 -554.093130
1457.319766 -565.862530 -556.233513
1455.694947 -565.748893 -558.373882
1454.070000 -565.635259 -560.514204
1452.445181 -565.521622 -562.654573
1458.042867 -567.530693 -566.963089
1456.410710 -567.416547 -569.113053
1454.778426 -567.302403 -571.262970
1453.146270 -567.188257 -573.412934
1451.514114 -567.074111 -575.562898
1449.881958 -566.959965 -577.712862
1448.249801 -566.845818 -579.862826
1446.617639 -566.731675 -582.012730
1452.149673 -568.736124 -586.407739
1450.510180 -568.621468 -588.567298
1448.870808 -568.506813 -590.726844
1454.373615 -570.509255 -595.160221
1383.235677 -557.446265 -630.456520
1386.982465 -559.325895 -637.203062
1385.364862 -559.212767 -639.333850
1380.013701 -563.691269 -681.428510
1378.374214 -563.576610 -683.588129
1383.563528 -565.557126 -688.434477
1381.916819 -565.441962 -690.603618
1380.270116 -565.326794 -692.772819
1378.623286 -565.211629 -694.941973
1384.747590 -567.488600 -700.225692
1383.092457 -567.372855 -702.405767
1376.641218 -570.156851 -734.267578
1374.971545 -570.040082 -736.466950
1360.381345 -576.183332 -807.420071
1353.075865 -584.684641 -882.128458
1358.554298 -586.916482 -888.262778
1356.803334 -586.794031 -890.569162
1355.052492 -586.671581 -892.875533
1350.911921 -592.159106 -940.050762
1349.135104 -592.034836 -942.391420
1328.819359 -596.622241 -1012.542301
1327.015366 -596.496075 -1014.918658
1332.922536 -598.988938 -1022.157154
1324.750299 -604.656642 -1077.980978
1322.908790 -604.527853 -1080.406743
1328.600330 -607.005647 -1087.929054
1326.749445 -606.876200 -1090.367201
1324.898547 -606.746760 -1092.805228
1330.552595 -609.221919 -1100.377189
1328.692321 -609.091821 -1102.827598
1326.839616 -611.042062 -1120.287633
1332.409351 -613.511329 -1127.970539
1338.785899 -616.268117 -1136.259680
1336.896531 -616.135977 -1138.748563
1343.241679 -618.890524 -1147.078746
1341.341849 -618.757656 -1149.581352
1346.834511 -621.221530 -1157.365862
1344.925293 -621.088010 -1159.880729
1183.155740 -654.604869 -1696.727895
1181.044384 -654.457215 -1699.508980
1178.933150 -654.309562 -1702.290054
1457.304756 -565.288555 -533.021845
1455.694484 -565.175940 -535.142978
1454.084211 -565.063324 -537.264110
1459.769298 -567.090552 -541.457997
1458.151810 -566.977428 -543.588711
1463.815006 -569.003129 -547.811369
1462.190072 -568.889488 -549.951812
1460.565247 -568.775855 -552.092121
1458.940428 -568.662218 -554.232490
1457.315487 -568.548580 -556.372873
1455.690668 -568.434944 -558.513242
1452.440902 -568.207673 -562.793933
1450.815956 -568.094038 -564.934255
1449.191136 -567.980402 -567.074624
1447.566317 -567.866765 -569.214994
1445.941377 -567.753127 -571.355376
1441.066792 -567.412220 -577.776437
1446.613341 -569.429764 -582.152714
1444.981185 -569.315618 -584.302678
1443.349035 -569.201469 -586.452703
1448.866491 -571.216971 -590.867455
1447.226998 -571.102315 -593.027014
1452.722570 -573.116286 -597.470597
1381.621165 -559.995593 -632.715761
1386.978206 -561.999877 -637.341796
1385.360602 -561.886749 -639.472584
1380.009384 -566.401426 -681.569120
1378.369897 -566.286767 -683.728740
1383.559192 -568.279322 -688.575713
1381.912483 -568.164158 -690.744853
1388.053351 -570.456073 -696.007262
1386.398231 -570.340322 -698.187458
1391.542794 -572.329744 -703.093422
1389.880451 -572.213487 -705.283139
1376.636822 -572.916929 -734.410778
1374.967149 -572.800160 -736.610151
1373.297476 -572.683391 -738.809524
1353.071277 -587.565284 -882.277914
1358.549688 -589.810840 -888.412946
1356.798724 -589.688389 -890.719330
1355.047882 -589.565939 -893.025701
1359.632151 -591.981772 -902.007461
1352.684301 -595.220769 -937.862480
1350.907242 -595.096497 -940.203163
1349.130425 -594.972226 -942.543820
1330.618601 -599.730598 -1010.320669
1328.814609 -599.604432 -1012.697026
1327.010616 -599.478266 -1015.073382
1332.917761 -601.986611 -1022.312682
1331.104380 -601.859794 -1024.701300
1322.903941 -607.572033 -1080.564684
1328.595456 -610.065309 -1088.087798
1326.744571 -609.935863 -1090.525946
1324.893673 -609.806423 -1092.963972
1330.547697 -612.297124 -1100.536740
1328.687423 -612.167027 -1102.987149
1332.404403 -616.617499 -1128.131696
1338.780923 -619.391476 -1136.421729
1336.891556 -619.259336 -1138.910612
1335.002067 -619.127195 -1141.399508
1341.336846 -621.898264 -1149.744296
1346.829484 -624.377681 -1157.529613
1344.920265 -624.244161 -1160.044479
1183.150181 -658.094982 -1696.908972
1181.038825 -657.947329 -1699.690058
1178.927590 -657.799676 -1702.471131
1467.616322 -567.030220 -507.888535
1466.013265 -566.918113 -510.000086
1464.410330 -566.806007 -512.111623
1470.182926 -568.851400 -516.190747
1468.572653 -568.738784 -518.311880
1466.962266 -568.626165 -520.433085
1465.351987 -568.513552 -522.554157
1457.300516 -567.950468 -533.159953
1455.690244 -567.837853 -535.281085
1454.079971 -567.725237 -537.402218
1459.765039 -569.764534 -541.596731
1458.147550 -569.651410 -543.727445
1456.529947 -569.538282 -545.858233
1454.912344 -569.425154 -547.989020
1453.294728 -569.312032 -550.119687
1458.936149 -571.348238 -554.371849
1457.311209 -571.234600 -556.512231
1455.686390 -571.120964 -558.652601
1450.811677 -570.780058 -565.073613
1449.186858 -570.666422 -567.213983
1447.562039 -570.552785 -569.354352
1439.437688 -569.984606 -580.056104
1444.976887 -572.013707 -584.442663
1443.344737 -571.899558 -586.592688
1448.862174 -573.927098 -591.008064
1447.222681 -573.812442 -593.167623
1452.718234 -575.838482 -597.611833
1384.837591 -562.882738 -628.611592
1383.227197 -562.770121 -630.732737
1381.616925 -562.657506 -632.853869
1386.973946 -564.673859 -637.480530
1385.356343 -564.560731 -639.611318
1383.738740 -564.447603 -641.742105
1381.644439 -569.226208 -679.550184
1380.005067 -569.111553 -681.709730
1385.201680 -571.116686 -686.547734
1383.554856 -571.001518 -688.716948
1381.908147 -570.886353 -690.886089
1388.048993 -573.192044 -696.149212
1386.393873 -573.076293 -698.329408
1391.538416 -575.077753 -703.235996
1389.876074 -574.961497 -705.425714
1394.998612 -576.961426 -710.361146
1401.074887 -579.262629 -715.709366
1399.396918 -579.145277 -717.919721
1376.632425 -575.676977 -734.553978
1374.962752 -575.560208 -736.753350
1373.293079 -575.443438 -738.952723
1371.623406 -575.326669 -741.152096
1369.953727 -575.209903 -743.351408
1356.551775 -590.689604 -877.836528
1354.809229 -590.567737 -880.131917
1353.066689 -590.445867 -882.427367
1358.545078 -592.705197 -888.563113
1356.794114 -592.582746 -890.869497
1355.043271 -592.460296 -893.175869
1361.387862 -595.014778 -899.839729
1359.627516 -594.891673 -902.158435
1357.867291 -594.768569 -904.477128
1352.679622 -598.158220 -938.014883
1327.005866 -602.460457 -1015.228107
1332.912986 -604.984284 -1022.468210
1331.099605 -604.857467 -1024.856828
1336.978584 -607.379389 -1032.133961
1335.155827 -607.251915 -1034.534961
1322.899092 -610.616214 -1080.722625
1321.057583 -610.487425 -1083.148390
1326.739697 -612.995586 -1090.684693
1332.403073 -615.502366 -1098.245878
1328.699420 -617.354131 -1118.145546
1326.829770 -617.223376 -1120.608338
1332.399455 -619.723608 -1128.292850
1330.520429 -619.592196 -1130.768024
1336.886581 -622.382694 -1139.072661
1334.997092 -622.250554 -1141.561557
1341.331844 -625.038873 -1149.907239
1346.824457 -627.533771 -1157.693360
1344.915238 -627.400252 -1160.208226
1181.033266 -661.437442 -1699.871135
1178.922031 -661.289789 -1702.652208
1460.214686 -567.509006 -506.086456
1458.618973 -567.397406 -508.188472
1457.023247 -567.285812 -510.290368
1462.803167 -569.343779 -514.360584
1461.200117 -569.231669 -516.472195
1459.597054 -569.119566 -518.583685
1465.347747 -571.175496 -522.692266
1463.737481 -571.062877 -524.813459
1449.979078 -568.446927 -531.252949
1448.376149 -568.334818 -533.364548
1446.773086 -568.222715 -535.476037
1452.465459 -570.274566 -539.661459
1450.855193 -570.161947 -541.782652
1449.244920 -570.049332 -543.903785
1454.908085 -572.099136 -548.127754
1453.290469 -571.986014 -550.258420
1458.931871 -574.034289 -554.511209
1450.807399 -573.466109 -565.212973
1449.182579 -573.352472 -567.353343
1444.972590 -574.711796 -584.582648
1443.340440 -574.597646 -586.732672
1441.708283 -574.483500 -588.882637
1440.076127 -574.369354 -591.032601
1452.713897 -578.560678 -597.753068
1383.222957 -565.432065 -630.870846
1381.612685 -565.319450 -632.991978
1386.969687 -567.347841 -637.619264
1385.352084 -567.234713 -639.750052
1383.734481 -567.121585 -641.880839
1381.318241 -570.260100 -668.431153
1381.640122 -571.936366 -679.690794
1380.000750 -571.821711 -681.850340
1385.197344 -573.838882 -686.688969
1383.550520 -573.723713 -688.858183
1381.903811 -573.608549 -691.027324
1388.044635 -575.927985 -696.291161
1386.389515 -575.812233 -698.471357
1391.534039 -577.825763 -703.378571
1396.663889 -579.838273 -708.304974
1402.748438 -582.153835 -713.642927
1401.070469 -582.036483 -715.853282
1399.392500 -581.919130 -718.063637
1374.958356 -578.320286 -736.896551
1373.288683 -578.203516 -739.095924
1371.619010 -578.086747 -741.295297
1369.949330 -577.969981 -743.494609
1375.900646 -580.276217 -749.008206
1374.222556 -580.158864 -751.218573
1372.544581 -580.041515 -753.428867
1356.547187 -593.570186 -877.985981
1354.804640 -593.448319 -880.281370
1358.540467 -595.599616 -888.713284
1356.789503 -595.477165 -891.019668
1355.038661 -595.354715 -893.326039
1359.622881 -597.801574 -902.309409
1354.451888 -601.219879 -935.826674
1352.674943 -601.095611 -938.167283
1327.001116 -605.442649 -1015.382832
1325.197002 -605.316482 -1017.759201
1331.094830 -607.855141 -1025.012356
1329.281461 -607.728317 -1027.401095
1335.151027 -610.265070 -1034.691292
1333.328270 -610.137596 -1037.092293
1322.894243 -613.660394 -1080.880566
1321.052734 -613.531605 -1083.306331
1326.734824 -616.055249 -1090.843437
1326.824847 -620.314064 -1120.768692
1324.955197 -620.183309 -1123.231483
1330.515481 -622.698366 -1130.929181
1336.881606 -625.506114 -1139.234713
1334.992117 -625.373973 -1141.723609
1333.102737 -625.241839 -1144.212371
1339.426999 -628.046618 -1152.572667
1337.527169 -627.913750 -1155.075273
1181.027706 -664.927616 -1700.052215
1178.916472 -664.779963 -1702.833288
1178.340488 -667.574668 -1723.621335
1474.571857 -571.151209 -487.305906
1455.989865 -568.185855 -500.098525
1454.401477 -568.074771 -502.190825
1460.210484 -570.146843 -506.223314
1458.614771 -570.035243 -508.325331
1457.019045 -569.923648 -510.427226
1455.423319 -569.812054 -512.529121
1453.827606 -569.700454 -514.631138
1459.592833 -571.769441 -518.721168
1457.989904 -571.657331 -520.832766
1456.386847 -571.545225 -522.944317
1454.783912 -571.433119 -525.055854
1448.371928 -570.984693 -533.502031
1446.768865 -570.872590 -535.613521
1452.461219 -572.936509 -539.799569
1450.850953 -572.823891 -541.920762
1449.240680 -572.711275 -544.041894
1454.903825 -574.773118 -548.266488
1453.286209 -574.659996 -550.397154
1451.668606 -574.546868 -552.527942
1437.804191 -575.243070 -582.475206
1436.179250 -575.129432 -584.615589
1441.703986 -577.181589 -589.022621
1440.071829 -577.067443 -591.172585
1452.709561 -581.282904 -597.894305
1383.218717 -568.094009 -631.008955
1381.608444 -567.981393 -633.130088
1379.998172 -567.868778 -635.251220
1385.347825 -569.908695 -639.888786
1383.730221 -569.795567 -642.019573
1382.946099 -573.072335 -666.421173
1381.313943 -572.958189 -668.571137
1379.681787 -572.844043 -670.721101
1385.193008 -576.561108 -686.830206
1383.546184 -576.445940 -688.999420
1381.899475 -576.330775 -691.168561
1388.040277 -578.663986 -696.433112
1386.385157 -578.548235 -698.613309
1391.529662 -580.573833 -703.521149
1396.659492 -582.598352 -708.448175
1402.744019 -584.927689 -713.786843
1373.284286 -580.963595 -739.239125
1371.614613 -580.846825 -741.438497
1369.944934 -580.730059 -743.637809
1375.896228 -583.050071 -749.152121
1374.218138 -582.932718 -751.362489
1363.767343 -587.675156 -803.520170
1358.535857 -598.493974 -888.863452
1356.784893 -598.371523 -891.169836
1361.378592 -600.834519 -900.141674
1354.447209 -604.157331 -935.979077
1352.670265 -604.033063 -938.319687
1350.893205 -603.908791 -940.660370
1349.116388 -603.784520 -943.001027
1326.996365 -608.424840 -1015.537556
1325.192252 -608.298673 -1017.913926
1331.090055 -610.852875 -1025.167887
1329.276686 -610.726052 -1027.556626
1335.146227 -613.278287 -1034.847627
1333.323470 -613.150812 -1037.248627
1322.889394 -616.704575 -1081.038507
1328.580835 -619.244358 -1088.564033
1326.819924 -623.404690 -1120.929042
1324.950274 -623.273936 -1123.391834
1330.510534 -625.804536 -1131.090338
1336.876631 -628.629472 -1139.396762
1334.987142 -628.497332 -1141.885658
1333.097762 -628.365198 -1144.374420
1339.421996 -631.187227 -1152.735611
1337.522166 -631.054358 -1155.238216
1181.022147 -668.417730 -1700.233292
1178.910912 -668.270077 -1703.014365
1180.458631 -671.233974 -1721.005901
1178.334896 -671.085445 -1723.803484
1474.567655 -573.789045 -487.442765
1472.971929 -573.677451 -489.544660
1443.795470 -566.843105 -494.591712
1442.220548 -566.732967 -496.666175
1440.645626 -566.622829 -498.740639
1452.808912 -570.589481 -504.419420
1451.220530 -570.478393 -506.511782
1449.632019 -570.367308 -508.604095
1455.419117 -572.449891 -512.665980
1453.823404 -572.338290 -514.767996
1452.227678 -572.226696 -516.869892
1450.632074 -572.115103 -518.971774
1449.036239 -572.003502 -521.073803
1454.779691 -574.082994 -525.193337
1441.057757 -571.445519 -531.583509
1439.462031 -571.333925 -533.685404
1445.161715 -573.410355 -537.862602
1443.558652 -573.298252 -539.974092
1441.955723 -573.186143 -542.085690
1447.626046 -575.260572 -546.301147
1446.015895 -575.147957 -548.422266
1451.664347 -577.220850 -552.666676
1450.046865 -577.107723 -554.797451
1448.429255 -576.994598 -556.928178
1437.799912 -577.929090 -582.614565
1436.174972 -577.815452 -584.754947
1441.699688 -579.879678 -589.162606
1447.209730 -581.942915 -593.589455
1452.705225 -584.005069 -598.035539
1376.232821 -568.589784 -628.658944
1381.604204 -570.643306 -633.268196
1386.961169 -572.695805 -637.896732
1385.343565 -572.582677 -640.027519
1382.941802 -575.770424 -666.561158
1381.309646 -575.656278 -668.711122
1385.188672 -579.283273 -686.971440
1383.541848 -579.168105 -689.140654
1381.895139 -579.052941 -691.309795
1388.035919 -581.399927 -696.575061
1386.380799 -581.284176 -698.755257
1391.525285 -583.321843 -703.663724
1396.655096 -585.358430 -708.591376
1369.940537 -583.490137 -743.781010
1368.270864 -583.373368 -745.980383
1374.213719 -585.706571 -751.506404
1372.535744 -585.589222 -753.716698
1370.857768 -585.471873 -755.926993
1363.762862 -590.488629 -803.666141
1362.060842 -590.369600 -805.908067
1360.358938 -590.250575 -808.149920
1358.280563 -599.453276 -875.989562
1356.780283 -601.265881 -891.320003
1352.665586 -606.970514 -938.472090
1350.888526 -606.846242 -940.812773
1326.991615 -611.407031 -1015.692281
1325.187501 -611.280864 -1018.068650
1331.085280 -613.850548 -1025.323415
1329.271911 -613.723725 -1027.712154
1335.141428 -616.291442 -1035.003958
1333.318671 -616.163968 -1037.404958
1326.567564 -620.006333 -1076.344917
1324.726054 -619.877544 -1078.770682
1322.884545 -619.748755 -1081.196448
1328.575962 -622.304021 -1088.722777
1326.815001 -626.495378 -1121.089396
1332.384612 -629.042117 -1128.776321
1330.505586 -628.910705 -1131.251495
1336.871656 -631.752831 -1139.558811
1334.982167 -631.620690 -1142.047707
1341.316836 -634.460697 -1150.396071
1339.416994 -634.327835 -1152.898555
1337.517164 -634.194967 -1155.401160
1181.016588 -671.907843 -1700.414369
1178.905353 -671.760190 -1703.195442
1184.700645 -675.041804 -1715.592993
1182.576896 -674.893281 -1718.390455
1180.453039 -674.744751 -1721.188051
1178.329303 -674.596221 -1723.985634
1473.713913 -571.539126 -455.311272
1472.139112 -571.428989 -457.385723
1478.107416 -573.536311 -461.209580
1476.525163 -573.425661 -463.293699
1474.943025 -573.315014 -465.377745
1473.360900 -573.204362 -467.461912
1476.630879 -574.881544 -473.170681
1465.512056 -574.103941 -487.816980
1442.216401 -569.336335 -496.801246
1440.641479 -569.226197 -498.875709
1452.804729 -573.215249 -504.555653
1451.216347 -573.104161 -506.648014
1449.627837 -572.993076 -508.740327
1455.414916 -575.087697 -512.802837
1453.819203 -574.976097 -514.904853
1452.223477 -574.864502 -517.006749
1450.627872 -574.752909 -519.108631
1449.032038 -574.641308 -521.210660
1454.775470 -576.732899 -525.330822
1439.457829 -573.971731 -533.822261
1437.862225 -573.860138 -535.924144
1436.266512 -573.748537 -538.026160
1441.951502 -575.836048 -542.223175
1440.348446 -575.723941 -544.334725
1446.011655 -577.809901 -548.560376
1451.660087 -579.894862 -552.805411
1450.042606 -579.781735 -554.936186
1448.424996 -579.668610 -557.066913
1446.807386 -579.555485 -559.197640
1377.831536 -571.351796 -626.684891
1376.228600 -571.239690 -628.796429
1381.599964 -573.305250 -633.406305
1386.956909 -575.369817 -638.035467
1385.339306 -575.256689 -640.166255
1384.569660 -578.582659 -664.551178
1382.937504 -578.468513 -666.701142
1381.305348 -578.354367 -668.851106
1385.184336 -582.005499 -687.112677
1383.537512 -581.890331 -689.281891
1381.890802 -581.775167 -691.451032
1388.031561 -584.135929 -696.717013
1386.376441 -584.020177 -698.897209
1391.520907 -586.069852 -703.806298
1396.650700 -588.118508 -708.734577
1368.266468 -586.133446 -746.123584
1374.209301 -588.480425 -751.650320
1372.531325 -588.363075 -753.860614
1370.853350 -588.245726 -756.070908
1363.758380 -593.302102 -803.812112
1362.056361 -593.183073 -806.054038
1360.354457 -593.064048 -808.295892
1360.018636 -602.455729 -873.843552
1358.275975 -602.333858 -876.139015
1356.533422 -602.211994 -878.434343
1360.277479 -604.405200 -886.857419
1358.526636 -604.282750 -889.163790
1350.879097 -607.851994 -927.616579
1349.110576 -607.728307 -929.946255
1328.790857 -614.515388 -1013.470649
1326.986865 -614.389222 -1015.847006
1325.182751 -614.263056 -1018.223375
1331.080505 -616.848221 -1025.478943
1329.267137 -616.721398 -1027.867682
1335.136628 -619.304658 -1035.160292
1333.313871 -619.177184 -1037.561293
1328.404224 -623.179302 -1074.077093
1326.562715 -623.050513 -1076.502858
1324.721205 -622.921724 -1078.928623
1330.421986 -625.493123 -1086.443495
1330.549378 -629.847515 -1116.324164
1328.679728 -629.716760 -1118.786955
1326.810078 -629.586005 -1121.249747
1332.379664 -632.148287 -1128.937478
1330.500638 -632.016875 -1131.412652
1336.866680 -634.876251 -1139.720863
1334.977192 -634.744110 -1142.209759
1341.311834 -637.601245 -1150.559011
1339.411991 -637.468382 -1153.061496
1337.512161 -637.335514 -1155.564101
1178.899794 -675.250303 -1703.376520
1182.571304 -678.404118 -1718.572607
1180.447447 -678.255588 -1721.370203
1178.323711 -678.107058 -1724.167786
1467.231644 -572.230651 -453.962866
1465.662979 -572.120949 -456.029135
1470.560049 -573.922246 -459.595319
1468.985127 -573.812108 -461.669783
1467.410339 -573.701965 -463.744355
1465.835417 -573.591827 -465.818819
1471.774474 -575.709151 -469.681666
1476.626697 -577.507312 -473.306914
1468.610211 -575.487852 -473.849879
1467.028086 -575.377199 -475.934046
1465.445826 -575.266552 -478.018104
1463.863695 -575.155902 -480.102210
1462.281563 -575.045252 -482.186317
1442.212254 -571.939733 -496.936317
1440.637332 -571.829595 -499.010781
1452.800547 -575.841017 -504.691885
1451.212165 -575.729929 -506.784246
1449.623654 -575.618844 -508.876560
1448.035272 -575.507756 -510.968921
1446.446883 -575.396671 -513.061222
1452.219275 -577.502339 -517.143607
1450.623670 -577.390746 -519.245490
1449.027836 -577.279145 -521.347519
1447.432232 -577.167551 -523.449401
1453.168193 -579.270667 -527.579856
1432.151053 -574.396891 -531.892268
1430.562664 -574.285806 -533.984569
1436.262310 -576.386374 -538.163019
1434.666584 -576.274780 -540.264914
1440.344225 -578.373816 -544.472209
1446.007415 -580.471845 -548.698485
1451.655828 -582.568844 -552.944145
1450.038346 -582.455717 -555.074920
1448.420737 -582.342592 -557.205647
1376.224380 -573.889565 -628.933912
1381.595724 -575.967194 -633.544414
1386.952650 -578.043799 -638.174201
1385.335047 -577.930671 -640.304989
1384.565363 -581.280748 -664.691163
1381.301050 -581.052455 -668.991091
1385.180000 -584.727665 -687.253911
1383.533176 -584.612496 -689.423125
1381.886466 -584.497332 -691.592266
1388.027203 -586.871869 -696.858961
1386.372083 -586.756118 -699.039157
1398.315976 -590.995355 -706.678405
1404.408861 -593.366599 -712.008282
1409.515670 -595.425719 -716.967419
1407.830358 -595.307860 -719.187308
1368.262071 -588.893524 -746.266785
1374.204882 -591.254278 -751.794235
1372.526907 -591.136929 -754.004530
1352.912459 -593.412233 -804.883325
1358.648071 -595.758436 -810.683713
1356.946051 -595.639407 -812.925639
1357.954245 -603.247176 -863.350729
1356.219988 -603.125895 -865.635076
1361.756594 -605.458240 -871.697619
1360.014048 -605.336373 -873.993008
1358.271386 -605.214502 -876.288471
1362.023832 -607.422009 -884.701202
1360.272868 -607.299558 -887.007586
1358.522026 -607.177108 -889.313958
1350.874440 -610.775610 -927.768265
1349.105919 -610.651922 -930.097940
1347.337277 -610.528234 -932.427628
1328.786107 -617.497579 -1013.625374
1326.982115 -617.371413 -1016.001730
1332.889111 -619.972712 -1023.245853
1331.075730 -619.845895 -1025.634471
1329.262362 -619.719072 -1028.023210
1335.131829 -622.317814 -1035.316623
1328.399375 -626.223483 -1074.235034
1326.557866 -626.094694 -1076.660799
1332.267998 -628.682293 -1084.164095
1330.417112 -628.552847 -1086.602242
1328.566214 -628.423407 -1089.040269
1330.544455 -632.938202 -1116.484518
1328.674805 -632.807447 -1118.947309
1326.805155 -632.676693 -1121.410100
1332.374717 -635.254457 -1129.098635
1330.495691 -635.123045 -1131.573809
1336.861705 -637.999609 -1139.882912
1334.972217 -637.867468 -1142.371808
1341.306831 -640.741853 -1150.721955
1339.406989 -640.608991 -1153.224439
1178.894234 -678.740478 -1703.557600
1467.227514 -574.823718 -454.097402
1465.658849 -574.714015 -456.163671
1470.555903 -576.525644 -459.730391
1468.980980 -576.415506 -461.804854
1460.952975 -574.384908 -462.362467
1459.384437 -574.275203 -464.428784
1464.256348 -576.085087 -468.028354
1462.681560 -575.974944 -470.102927
1468.606045 -578.103288 -473.985575
1467.023920 -577.992635 -476.069742
1465.441660 -577.881988 -478.153800
1463.859529 -577.771338 -480.237907
1462.277397 -577.660689 -482.322013
1460.695137 -577.550041 -484.406071
1435.855061 -572.629670 -495.422701
1446.455704 -576.554197 -503.162993
1451.207982 -578.355697 -506.920479
1449.619472 -578.244612 -509.012792
1448.031090 -578.133524 -511.105153
1446.442701 -578.022439 -513.197454
1452.215073 -580.140176 -517.280466
1450.619469 -580.028583 -519.382348
1449.023634 -579.916981 -521.484377
1447.428030 -579.805388 -523.586260
1430.558482 -576.911574 -534.120801
1436.258108 -579.024211 -538.299878
1434.662383 -578.912617 -540.401773
1376.220159 -576.539440 -629.071395
1381.591484 -578.629107 -633.682522
1386.948391 -580.717781 -638.312935
1385.330787 -580.604653 -640.443723
1383.528839 -587.334723 -689.564362
1381.882130 -587.219558 -691.733503
1380.235427 -587.104391 -693.902704
1386.367725 -589.492120 -699.181109
1391.512153 -591.565932 -704.091451
1404.404443 -596.140453 -712.152198
1368.257675 -591.653602 -746.409985
1360.345494 -598.690933 -808.587831
1358.643589 -598.571909 -810.829684
1363.434848 -600.621023 -816.205206
1361.725606 -600.501489 -818.456654
1360.016371 -600.381952 -820.708162
1359.683923 -606.235331 -861.215003
1357.949678 -606.114043 -863.499471
1356.215421 -605.992763 -865.783817
1354.481177 -605.871475 -868.068285
1360.009459 -608.216955 -874.142461
1358.266798 -608.095084 -876.437924
1362.019222 -610.316428 -884.851373
1360.268258 -610.193977 -887.157757
1358.517415 -610.071527 -889.464128
1350.869783 -613.699286 -927.919954
1349.101262 -613.575598 -930.249629
1347.332620 -613.451910 -932.579317
1330.585349 -620.605936 -1011.403742
1328.781357 -620.479770 -1013.780098
1334.697705 -623.097269 -1021.012645
1332.884336 -622.970446 -1023.401384
1331.070955 -622.843629 -1025.790002
1336.949786 -625.458504 -1033.071957
1335.127029 -625.331030 -1035.472958
1328.394526 -629.267663 -1074.392974
1334.114022 -631.871396 -1081.884812
1332.263124 -631.741956 -1084.322839
1330.412239 -631.612509 -1086.760987
1328.561341 -631.483069 -1089.199013
1328.669882 -635.898135 -1119.107663
1326.800232 -635.767380 -1121.570454
1332.369769 -638.360627 -1129.259792
1330.490743 -638.229215 -1131.734966
1336.856730 -641.123029 -1140.044964
1334.967241 -640.990888 -1142.533860
1341.301828 -643.882461 -1150.884899
1339.401986 -643.749599 -1153.387383
1178.888675 -682.230591 -1703.738677
1176.777453 -682.082932 -1706.519871
1174.666098 -681.935278 -1709.300957
1481.575936 -579.900021 -445.343939
1459.665675 -575.162155 -452.499966
1462.517509 -577.087677 -460.430733
1460.948844 -576.977975 -462.497002
1459.380307 -576.868270 -464.563320
1464.252201 -578.688486 -468.163426
1462.677413 -578.578342 -470.237998
1461.102491 -578.468205 -472.312462
1459.527575 -578.358064 -474.386986
1457.952780 -578.247923 -476.461498
1463.855362 -580.386805 -480.373605
1462.273231 -580.276156 -482.457711
1460.690971 -580.165508 -484.541769
1459.108846 -580.054856 -486.625936
1446.451538 -579.169664 -503.298691
1444.869406 -579.059014 -505.382797
1443.287153 -578.948364 -507.466916
1441.705028 -578.837711 -509.551083
1440.122890 -578.727064 -511.635128
1444.850015 -580.537149 -515.426062
1443.261626 -580.426064 -517.518363
1449.019433 -582.554787 -521.621234
1447.423828 -582.443194 -523.723117
1379.421808 -579.413557 -624.985805
1377.818873 -579.301451 -627.097342
1383.197516 -581.403666 -631.699499
1383.524503 -590.056888 -689.705596
1381.877794 -589.941724 -691.874736
1380.231091 -589.826556 -694.043938
1386.363367 -592.228060 -699.323057
1391.507776 -594.313941 -704.234025
1404.400024 -598.914306 -712.296113
1371.592631 -594.647216 -742.154501
1369.922952 -594.530449 -744.353814
1360.341012 -601.504406 -808.733802
1358.639108 -601.385382 -810.975655
1363.430347 -603.446504 -816.351800
1361.721105 -603.326970 -818.603248
1356.210855 -608.859570 -865.932555
1354.476611 -608.738282 -868.217023
1352.742360 -608.616998 -870.501430
1358.262209 -610.975727 -876.587380
1356.519656 -610.853863 -878.882708
1354.777110 -610.731996 -881.178097
1360.263648 -613.088335 -887.307925
1358.512805 -612.965885 -889.614296
1356.761841 -612.843434 -891.920680
1349.096605 -616.499214 -930.401315
1347.327963 -616.375526 -932.731003
1334.188705 -623.840460 -1006.805740
1332.384592 -623.714293 -1009.182110
1330.580599 -623.588127 -1011.558466
1336.506311 -626.221759 -1018.779555
1334.692930 -626.094942 -1021.168173
1332.879561 -625.968119 -1023.556912
1324.483574 -629.819392 -1064.669532
1322.651441 -629.691260 -1067.082915
1328.389677 -632.311844 -1074.550915
1334.109149 -634.931058 -1082.043556
1332.258250 -634.801618 -1084.481583
1330.407365 -634.672172 -1086.919731
1328.664959 -638.988762 -1119.268013
1326.795309 -638.858007 -1121.730805
1332.364821 -641.466797 -1129.420949
1330.485795 -641.335384 -1131.896123
1336.851755 -644.246387 -1140.207013
1334.962266 -644.114246 -1142.695909
1341.296826 -647.023070 -1151.047843
1339.396983 -646.890207 -1153.550327
1178.883116 -685.720704 -1703.919754
1176.771894 -685.573045 -1706.700948
1174.660538 -685.425391 -1709.482034
1481.571790 -582.503419 -445.479011
1464.082044 -579.790447 -458.498999
1462.513379 -579.680744 -460.565269
1464.248054 -581.291884 -468.298498
1462.673266 -581.181740 -470.373070
1461.098344 -581.071603 -472.447534
1459.523428 -580.961462 -474.522058
1457.948634 -580.851322 -476.596570
1456.373711 -580.741184 -478.671034
1454.798789 -580.631046 -480.745497
1453.223995 -580.520906 -482.820009
1439.050104 -579.529646 -501.490569
1444.865240 -581.674450 -505.518493
1443.282987 -581.563800 -507.602612
1434.325465 -579.199231 -507.714008
1432.750549 -579.089090 -509.788532
1438.536471 -581.231850 -513.854944
1379.417587 -582.063432 -625.123288
1377.814652 -581.951326 -627.234826
1390.175091 -586.291994 -634.328949
1381.873458 -592.663950 -692.015973
1380.226755 -592.548782 -694.185175
1386.359009 -594.964062 -699.465009
1391.503398 -597.061951 -704.376600
1404.395606 -601.688160 -712.440029
1371.588235 -597.407294 -742.297702
1369.918555 -597.290528 -744.497014
1360.336531 -604.317819 -808.879770
1365.135075 -606.391586 -814.246828
1363.425846 -606.272046 -816.498397
1361.716605 -606.152512 -818.749845
1356.206288 -611.726437 -866.081297
1354.472044 -611.605150 -868.365764
1352.737793 -611.483866 -870.650171
1358.257621 -613.856310 -876.736833
1356.515068 -613.734446 -879.032161
1354.772521 -613.612579 -881.327550
1356.757231 -615.737792 -892.070848
1349.091948 -619.422890 -930.553003
1347.323306 -619.299202 -932.882691
1345.554670 -619.175511 -935.212440
1335.987948 -626.948817 -1004.584108
1334.183955 -626.822651 -1006.960465
1332.379841 -626.696484 -1009.336834
1338.315026 -629.346256 -1016.546331
1336.501536 -629.219432 -1018.935083
1334.688155 -629.092615 -1021.323701
1327.826292 -630.847498 -1045.389759
1324.478750 -632.848090 -1064.826669
1322.646616 -632.719959 -1067.240052
1328.384828 -635.356024 -1074.708856
1334.104275 -637.990721 -1082.202301
1332.253377 -637.861281 -1084.640327
1330.402492 -637.731834 -1087.078475
1326.790386 -641.948695 -1121.891159
1330.480847 -644.441554 -1132.057280
1328.601821 -644.310142 -1134.532454
1326.722782 -644.178736 -1137.007507
1324.843756 -644.047324 -1139.482680
1331.178423 -646.973330 -1147.835615
1176.766335 -689.063219 -1706.882029
1174.654979 -688.915565 -1709.663115
1176.177485 -692.001634 -1727.693979
1448.717443 -576.308742 -445.471207
1465.646458 -582.493185 -456.567277
1456.234716 -581.834967 -468.964928
1454.666166 -581.725268 -471.031125
1453.097501 -581.615566 -473.097394
1451.528835 -581.505863 -475.163663
1449.960292 -581.396161 -477.229920
1448.495215 -582.793855 -489.178579
1446.920300 -582.683714 -491.253103
1445.345377 -582.573576 -493.327567
1443.770589 -582.463433 -495.402139
1444.861074 -584.289887 -505.654190
1443.278821 -584.179236 -507.738309
1427.999471 -579.860324 -506.157701
1426.430806 -579.750621 -508.223971
1438.532305 -583.847287 -513.990640
1379.413366 -584.713307 -625.260771
1377.810431 -584.601201 -627.372309
1390.170832 -588.966007 -634.467684
1382.916016 -591.958957 -667.401065
1381.283859 -591.844811 -669.551030
1379.651703 -591.730664 -671.700994
1375.047863 -593.158880 -689.453944
1373.408375 -593.044221 -691.613564
1378.575589 -595.155783 -696.495562
1391.499021 -599.809960 -704.519175
1404.391187 -604.462013 -712.583944
1371.583838 -600.167372 -742.440903
1369.914159 -600.050606 -744.640215
1360.332049 -607.131292 -809.025741
1365.130574 -609.217067 -814.393422
1363.421346 -609.097527 -816.644991
1356.201722 -614.593244 -866.230035
1354.467478 -614.471957 -868.514503
1352.733227 -614.350673 -870.798910
1358.253032 -616.736892 -876.886286
1349.087291 -622.346566 -930.704692
1347.318649 -622.222878 -933.034380
1345.550013 -622.099187 -935.364129
1343.781492 -621.975499 -937.693804
1347.306583 -624.222224 -946.408586
1337.787190 -630.057174 -1002.362476
1335.983197 -629.931008 -1004.738833
1341.937001 -632.597570 -1011.924502
1340.123620 -632.470753 -1014.313120
1329.644250 -633.988127 -1043.145090
1327.821492 -633.860653 -1045.546090
1324.175991 -633.605698 -1050.348212
1322.353234 -633.478224 -1052.749212
1320.530476 -633.350750 -1055.150213
1322.641792 -635.748657 -1067.397190
1320.809672 -635.620519 -1069.810694
1326.538470 -638.271416 -1077.292562
1324.696960 -638.142627 -1079.718328
1330.397618 -640.791497 -1087.237219
1328.546720 -640.662057 -1089.675245
1326.695834 -640.532611 -1092.113393
1330.475900 -647.547663 -1132.218434
1328.596874 -647.416251 -1134.693608
1326.717835 -647.284845 -1137.168661
1341.286821 -653.304286 -1151.373731
1339.386978 -653.171424 -1153.876215
1176.760775 -692.553333 -1707.063106
1174.649420 -692.405679 -1709.844192
1180.419486 -695.809531 -1722.280952
1178.295750 -695.661002 -1725.078535
1447.162705 -582.031640 -469.354974
1451.524705 -584.098930 -475.298199
1449.956161 -583.989228 -477.364456
1448.387496 -583.879525 -479.430725
1459.096348 -587.901195 -487.033027
1446.916153 -585.287112 -491.388175
1445.341230 -585.176974 -493.462639
1443.766442 -585.066831 -495.537211
1443.274655 -586.794703 -507.874007
1427.995341 -582.453390 -506.292237
1426.426676 -582.343688 -508.358507
1379.409146 -587.363182 -625.398254
1377.806210 -587.251076 -627.509792
1390.166573 -591.639958 -634.606417
1382.911718 -594.657046 -667.541050
1381.279562 -594.542899 -669.691014
1379.647405 -594.428753 -671.840978
1375.043546 -595.869037 -689.594555
1373.404059 -595.754379 -691.754175
1378.571252 -597.878009 -696.636799
1391.494644 -602.558030 -704.661752
1396.624321 -604.678976 -709.593782
1371.579442 -602.927450 -742.584104
1369.909762 -602.810684 -744.783416
1375.860881 -605.240899 -750.303445
1374.182790 -605.123546 -752.513813
1360.327568 -609.944765 -809.171712
1365.126074 -612.042548 -814.540016
1363.416845 -611.923007 -816.791585
1356.197156 -617.460051 -866.378773
1354.462911 -617.338764 -868.663241
1359.991106 -619.739406 -874.740279
1347.313992 -625.146493 -933.186066
1345.545356 -625.022802 -935.515814
1343.776835 -624.899115 -937.845490
1349.078957 -627.283889 -944.220243
1337.782439 -633.039365 -1002.517201
1335.978447 -632.913199 -1004.893557
1341.932226 -635.595304 -1012.080033
1340.118845 -635.468487 -1014.468651
1324.171191 -636.618915 -1050.504546
1322.348434 -636.491440 -1052.905547
1320.525677 -636.363966 -1055.306547
1328.375130 -641.444385 -1075.024738
1326.533621 -641.315596 -1077.450503
1332.243630 -643.980606 -1084.957815
1330.392744 -643.851160 -1087.395963
1328.541846 -643.721720 -1089.833990
1330.470952 -650.653833 -1132.379591
1328.591926 -650.522421 -1134.854765
1334.947341 -653.484383 -1143.182058
1333.057961 -653.352249 -1145.670820
1331.168472 -653.220109 -1148.159716
1174.643860 -695.895792 -1710.025269
1172.532504 -695.748138 -1712.806355
1178.290158 -699.171778 -1725.260684
1176.166300 -699.023248 -1728.058280
1174.042552 -698.874724 -1730.855742
1447.161431 -581.317751 -447.775543
1445.613690 -581.209506 -449.814368
1449.952031 -586.582294 -477.498992
1448.383366 -586.472592 -479.565261
1381.007981 -590.125163 -623.424187
1379.404925 -590.013057 -625.535737
1384.790950 -592.163996 -630.130788
1390.162313 -594.313970 -634.745152
1381.275264 -597.241049 -669.831002
1379.643108 -597.126903 -671.980966
1378.010951 -597.012757 -674.130930
1376.378795 -596.898611 -676.280894
1375.039229 -598.579195 -689.735166
1373.399742 -598.464536 -691.894785
1378.566916 -600.600174 -696.778032
1391.490267 -605.306040 -704.804327
1396.619924 -607.439055 -709.736983
1391.610905 -607.088746 -716.335101
1373.244718 -605.804298 -740.527932
1371.575045 -605.687528 -742.727305
1369.905366 -605.570762 -744.926617
1375.856462 -608.014752 -750.447361
1374.178372 -607.897399 -752.657728
1360.323086 -612.758238 -809.317683
1365.121573 -614.868090 -814.686614
1363.412344 -614.748549 -816.938183
1356.192589 -620.326919 -866.527515
1354.458345 -620.205632 -868.811982
1359.986517 -622.619989 -874.889732
1347.309335 -628.070170 -933.337755
1345.540699 -627.946478 -935.667503
1343.772178 -627.822791 -937.997179
1349.074278 -630.221341 -944.372646
1337.777689 -636.021556 -1002.671925
1335.973697 -635.895390 -1005.048282
1341.927451 -638.592977 -1012.235561
1340.114070 -638.466160 -1014.624179
1320.800023 -641.677855 -1070.124966
1326.528772 -644.359716 -1077.608441
1324.687263 -644.230927 -1080.034206
1322.845753 -644.102138 -1082.459971
1328.536972 -646.781443 -1089.992737
1326.686087 -646.651997 -1092.430885
1330.466004 -653.760003 -1132.540748
1328.586978 -653.628590 -1135.015922
1334.942366 -656.607742 -1143.344107
1333.052986 -656.475608 -1145.832869
1331.163497 -656.343467 -1148.321765
1174.638301 -699.385905 -1710.206346
1180.408301 -702.831084 -1722.645251
1178.284565 -702.682554 -1725.442834
1176.160708 -702.534024 -1728.240429
1174.036960 -702.385501 -1731.037891
1447.157355 -583.876349 -447.908291
1445.609615 -583.768104 -449.947116
1381.003760 -592.775038 -623.561670
1379.400704 -592.662931 -625.673220
1384.786710 -594.825939 -630.268897
1390.158054 -596.987922 -634.883885
1379.638810 -599.824992 -672.120951
1378.006654 -599.710846 -674.270915
1376.374497 -599.596700 -676.420879
1375.034912 -601.289352 -689.875777
1373.395425 -601.174694 -692.035396
1378.562580 -603.322400 -696.919269
1391.485889 -608.054049 -704.946902
1389.823547 -607.937792 -707.136619
1394.945855 -610.082363 -712.079556
1393.276182 -609.965594 -714.278929
1373.240322 -608.564376 -740.671133
1371.570649 -608.447606 -742.870506
1369.900969 -608.330840 -745.069818
1375.852044 -610.788606 -750.591276
1374.173954 -610.671253 -752.801644
1360.318605 -615.571650 -809.463651
1365.117072 -617.693570 -814.833208
1363.407844 -617.574030 -817.084777
1356.188023 -623.193726 -866.676253
1354.453778 -623.072439 -868.960720
1359.981929 -625.500571 -875.039185
1347.304678 -630.993785 -933.489440
1345.536042 -630.870093 -935.819189
1343.767521 -630.746406 -938.148864
1349.069599 -633.158793 -944.525049
1339.576944 -639.129907 -1000.450415
1337.772939 -639.003747 -1002.826650
1343.736044 -641.717474 -1010.002350
1341.922676 -641.590650 -1012.391089
1340.109295 -641.463834 -1014.779707
1322.627319 -644.834691 -1067.868599
1320.795199 -644.706553 -1070.282104
1326.523923 -647.403896 -1077.766382
1324.682414 -647.275107 -1080.192147
1322.840904 -647.146318 -1082.617912
1328.532099 -649.841106 -1090.151481
1326.681213 -649.711659 -1092.589629
1332.340083 -656.997585 -1130.226731
1330.461057 -656.866172 -1132.701905
1336.826879 -659.863302 -1141.017263
1334.937391 -659.731161 -1143.506159
1341.271813 -662.726050 -1151.862559
1339.371971 -662.593188 -1154.365043
1187.024368 -691.748646 -1615.572157
1174.632742 -702.876080 -1710.387426
1172.521386 -702.728426 -1713.168512
1170.410151 -702.580773 -1715.949585
1176.155116 -706.044801 -1728.422579
1174.031367 -705.896277 -1731.220040
1380.999540 -595.424913 -623.699153
1379.396483 -595.312806 -625.810704
1384.782470 -597.487883 -630.407007
1390.153795 -599.661934 -635.022620
1386.918575 -599.435684 -639.284074
1385.300972 -599.322556 -641.414862
1379.634512 -602.523081 -672.260935
1378.002356 -602.408934 -674.410900
1376.370200 -602.294788 -676.560864
1376.670088 -604.114105 -687.856826
1375.030595 -603.999449 -690.016385
1373.391108 -603.884790 -692.176004
1378.558244 -606.044566 -697.060503
1391.481512 -610.802058 -705.089476
1394.941458 -612.842441 -712.222757
1373.235926 -611.324454 -740.814334
1371.566252 -611.207684 -743.013706
1369.896573 -611.090918 -745.213018
1375.847626 -613.562460 -750.735192
1374.169535 -613.445106 -752.945560
1362.016028 -618.504147 -807.367769
1360.314123 -618.385123 -809.609622
1365.112572 -620.519112 -814.979805
1363.403343 -620.399572 -817.231374
1356.183456 -626.060533 -866.824991
1354.449212 -625.939246 -869.109459
1359.977340 -628.381215 -875.188641
1347.300021 -633.917461 -933.641129
1345.531385 -633.793770 -935.970878
1343.762864 -633.670082 -938.300553
1349.064920 -636.096183 -944.677450
1347.287867 -635.971908 -947.018193
1339.572194 -642.112098 -1000.605139
1337.768189 -641.985938 -1002.981375
1343.731270 -644.715147 -1010.157878
1341.917901 -644.588324 -1012.546617
1340.104520 -644.461507 -1014.935235
1338.291151 -644.334684 -1017.323974
1326.519074 -650.448077 -1077.924323
1324.677565 -650.319288 -1080.350088
1322.836055 -650.190499 -1082.775853
1328.527225 -652.900768 -1090.310225
1326.676340 -652.771322 -1092.748373
1332.335135 -660.103754 -1130.387889
1338.711271 -663.118800 -1138.690429
1336.821904 -662.986660 -1141.179312
1343.166640 -665.999527 -1149.522897
1341.266811 -665.866658 -1152.025503
1339.366968 -665.733796 -1154.527987
1187.018937 -695.157875 -1615.749038
1184.956647 -695.013644 -1618.465653
1174.627182 -706.366193 -1710.568504
1172.515826 -706.218539 -1713.349589
1170.404592 -706.070886 -1716.130662
1176.149524 -709.555638 -1728.604731
1174.025775 -709.407115 -1731.402193
1442.505862 -588.668898 -454.290279
1440.958001 -588.560652 -456.329116
1387.998762 -600.375064 -626.302730
1386.388496 -600.262445 -628.423923
1384.778229 -600.149827 -630.545116
1383.167836 -600.037210 -632.666261
1388.531926 -602.222761 -637.292079
1386.914316 -602.109636 -639.422806
1385.296713 -601.996508 -641.553594
1383.679110 -601.883380 -643.684381
1378.305143 -606.938917 -685.837891
1376.665771 -606.824262 -687.997437
1375.026278 -606.709606 -690.156995
1380.200739 -608.881957 -695.032587
1378.553908 -608.766792 -697.201740
1384.677862 -611.264139 -702.496893
1389.814793 -613.433872 -707.421772
1371.561856 -613.967762 -743.156907
1369.892176 -613.850996 -745.356219
1375.843207 -616.336252 -750.879104
1374.165117 -616.218899 -753.089472
1362.011546 -621.317620 -807.513740
1360.309642 -621.198596 -809.755593
1365.108071 -623.344593 -815.126399
1363.398842 -623.225053 -817.377968
1356.178890 -628.927401 -866.973732
1354.444645 -628.806114 -869.258200
1359.972752 -631.261797 -875.338094
1343.758207 -636.593698 -938.452239
1349.060241 -639.033635 -944.829853
1339.567444 -645.094289 -1000.759864
1337.763439 -644.968130 -1003.136099
1335.959446 -644.841964 -1005.512456
1340.099745 -647.459241 -1015.090766
